ply
format ascii 1.0
comment created by gply, a Houdini tool.
comment converted from .[b]geo
comment for more information about Houdini, try:
comment www.sidefx.com
element vertex 1238
property float x
property float y
property float z
element face 0
property list uchar int vertex_indices
end_header
0.0677659214 0.021852456 -1.27348232 
-0.389271915 0.432025939 0.0625380129 
-0.17165418 0.345597863 -1.31376386 
0.657198191 -0.0186448395 -0.260670394 
-0.184437662 0.421960503 0.264360607 
0.604477167 -0.216707289 0.0774742812 
-0.0802288055 -0.0763350576 1.00266004 
0.523105383 -0.316097915 0.633886516 
0.171921134 -0.549716234 -0.787662566 
0.137401342 0.0985397696 1.06789875 
0.300416321 -0.744386017 -0.982776344 
-0.0477943122 -0.185781628 0.95326066 
0.422536463 -0.442122698 0.248995632 
0.437652439 -0.494123578 -0.0129043758 
0.0847876072 0.120584808 1.30546761 
-0.279241562 0.529553533 -1.30182266 
-0.143626392 -0.381993532 -0.634824455 
-0.425158322 0.521281719 0.585444808 
-0.0917506367 -0.446977794 -0.702161908 
-0.316275954 0.12228027 1.29785848 
0.0476537645 0.409500629 -0.0229596943 
0.767391205 -0.495046496 -0.270255357 
0.533609748 -0.541631103 0.0804231241 
-0.530914843 0.25696072 1.04500687 
-0.539212108 0.182945475 1.24892879 
-0.393377274 0.41890797 -1.09839225 
0.166679144 -0.599047899 -1.31802297 
-0.0109568536 0.624791384 -0.898630381 
0.572970033 -0.0878020823 -0.0569198281 
-0.242977858 0.157105744 -0.93564707 
-0.488621235 0.355525523 -0.353233457 
-0.436244935 0.515430152 0.523699164 
-0.514689326 0.447172761 0.372259438 
0.697952151 -0.353993714 0.0152037367 
0.18739748 0.118844442 0.780337095 
-0.062406376 -0.0615233928 1.17777014 
0.588410497 -0.571648896 -0.85121876 
0.57665503 -0.14097476 -0.056335181 
-0.226088196 -0.235969424 -0.945289552 
-0.0654819906 0.723165154 -0.809903622 
0.133813947 -0.458474457 -1.3270936 
0.00894171 0.219187319 1.2777946 
0.242408365 0.117052779 -1.14464045 
0.0059389472 0.595477998 -0.900286794 
0.223782301 -0.329326838 0.675835371 
-0.236499101 0.643358469 -1.2149539 
0.618450403 -0.239537358 0.6293993 
0.40955326 -0.71303165 -0.884196579 
-0.0871046185 0.4031488 -1.22068691 
-0.581558228 0.428483874 0.441124737 
0.343793482 0.0712072253 -1.13082075 
0.795464754 -0.159725457 0.454718173 
0.288358003 0.432787299 -0.530407548 
0.410006732 -0.349527687 -1.08802772 
-0.17485714 -0.331278056 0.407942504 
0.21793133 0.406799585 -0.337527484 
-0.20980829 -0.265793502 -0.947172463 
0.484254628 -0.0179779381 0.510718346 
0.386272341 -0.465254426 0.163531631 
0.456339031 0.140690893 -0.977960169 
0.405328184 -0.31255883 -1.10591555 
0.514590859 -0.228676826 -1.02204347 
0.145975739 -0.29434213 0.631226897 
-0.253813982 0.607839465 -0.592285335 
-0.762270212 0.209913075 0.479576766 
0.531012416 -0.60495007 -0.402344257 
0.416206986 -0.641560793 -1.21091747 
-0.158928573 -0.307820618 -0.184340924 
0.281118542 -0.711701691 -0.914218783 
-0.0768466592 0.394026577 0.788764894 
0.506878018 -0.316987157 0.376041919 
0.327652901 0.366087139 -0.348642558 
0.643016338 -0.374679446 -0.736647785 
0.122704536 0.181310952 -1.12974596 
-0.752212286 0.274272323 0.802375138 
0.591696143 0.147885397 -0.315827727 
0.346955806 -0.411396503 0.0348940156 
0.28308174 -0.323496163 0.601040602 
-0.19419995 0.498366654 -1.29274368 
0.185873061 -0.473511875 -0.179997593 
0.149505556 -0.549376011 -0.831477225 
-0.101048872 -0.251708031 -1.1342206 
0.435156375 0.257533073 -0.153533623 
-0.170498997 -0.306843221 -0.446202397 
0.561188698 0.105113223 -0.131051317 
-0.254568428 -0.0409035832 1.25840998 
-0.666955411 0.130026564 1.23366284 
0.559135675 0.0858128592 -0.00011780858 
-0.193178385 -0.255882144 -0.9836393 
-0.384895384 0.575719118 -0.353640199 
-0.17105788 -0.272906154 0.761384785 
0.0614499152 -0.526391864 -0.745848298 
0.147188306 -0.319593608 0.711805105 
-0.0818314254 -0.26222828 0.661093295 
-0.211987436 0.283599585 -1.29868579 
0.364463419 0.310317665 -0.145263448 
-0.263115913 -0.257670552 -0.715885043 
-0.123679191 -0.366335094 -0.574203849 
0.687307358 -0.215090871 -0.677227259 
0.570762753 -0.0311768055 -0.805201054 
0.592012882 -0.0294731855 -0.550346851 
0.312667042 -0.0796560943 0.784591198 
0.270224899 -0.303780347 -1.21836114 
0.483564824 -0.393365979 -0.964059412 
0.151242644 -0.639178872 -1.05262589 
-0.096059233 0.710677147 -0.880328059 
0.700036407 -0.400040507 -0.711281419 
0.382258326 -0.50851953 -1.18441081 
0.277016133 -0.36244601 0.343163162 
0.865124345 -0.443862259 -0.512899578 
0.591830969 -0.351378918 0.395522505 
-0.500859022 0.36836344 0.911409378 
0.505798697 0.0936876982 0.244901657 
0.641741872 -0.163700163 -0.528352439 
0.620582461 -0.136701137 -0.690451503 
0.264679462 -0.350205272 0.395226002 
-0.461010277 -0.0639750659 1.03948355 
0.166775227 0.10676828 0.902688324 
-0.181908697 -0.0669662952 -1.21851254 
-0.35206306 0.285540491 -1.16053367 
0.511095762 -0.361488879 0.526572704 
-0.136667252 -0.270376176 0.739163041 
0.513401389 -0.646864951 -0.965658963 
-0.0354811698 -0.401185155 0.0337713398 
0.736538529 -0.228034943 0.568334222 
0.0672830939 -0.597354949 -1.23690844 
-0.101459444 -0.447057009 -0.829088688 
0.567976236 -0.117885083 -0.0394538939 
0.242505461 -0.328612477 0.749444306 
-0.736936331 -0.039230004 0.443877518 
0.547033787 -0.255725503 0.659328341 
0.283652455 -0.46463263 -1.30874372 
0.716465116 -0.278030843 -0.443871021 
-0.264433473 -0.331407577 0.114525512 
-0.0975444615 -0.00439193845 1.31940746 
-0.00980448723 0.300527871 -1.17310596 
-0.411395609 0.381042957 -0.403301656 
-0.0645606965 -0.357040554 -1.05512118 
-0.395696789 0.402888268 0.929310977 
0.707091451 -0.555594206 -0.283872187 
-0.0405011475 -0.256322324 0.633340716 
0.473249942 0.158810407 0.0548972264 
-0.310507357 0.459770769 -0.918263733 
0.116528988 -0.119751781 0.961080849 
-0.12336047 -0.215516627 0.892089307 
-0.556380868 0.454262018 0.47041285 
0.333965808 0.333867788 -0.725293934 
0.384048134 -0.492713153 -0.356018126 
0.488596708 0.115662664 0.223420888 
0.195491463 0.43806228 -0.722609639 
0.311414748 -0.00588178635 0.647026598 
-0.136081621 0.698816717 -0.563773215 
0.62198627 -0.113683879 -0.143730685 
-0.195487142 -0.0845740288 -1.05350709 
0.330874652 -0.500821054 -0.309595883 
-0.21694383 -0.286583781 -0.908820987 
-0.460750133 0.369200051 -0.36966297 
0.639196754 -0.45420146 0.108758494 
0.741608143 -0.3036125 -0.455698848 
-0.213299453 0.00376398861 -1.21978903 
0.119853288 0.659958124 -0.64466995 
0.425430626 -0.167383194 0.761294544 
0.301774651 0.128359288 -1.12087107 
0.652074695 -0.631496251 -0.446122587 
-0.731270432 0.175577044 0.299282432 
-0.205987155 -0.363300741 0.0751170442 
-0.411008984 0.538294792 -1.06208825 
-0.0673157573 0.682013988 -0.924492896 
-0.567790151 -0.25182879 0.34593609 
0.603970408 -0.47588861 -0.77687639 
-0.35294503 0.545461595 -0.942243636 
0.701717973 -0.627640426 -0.514984667 
0.261457771 -0.325531274 0.627465546 
0.475885183 -0.59660089 -1.08304954 
0.056034416 0.114670962 -1.22355342 
0.0624263883 -0.476200283 -0.320421934 
0.466121644 -0.349389702 0.623904169 
-0.174975991 0.426896036 -1.30135584 
-0.393385351 -0.224965006 0.143094331 
-0.125411257 0.628722072 -1.09295845 
-0.701444864 0.322022855 0.37440607 
-0.116983071 0.641665161 -1.06702781 
0.465251535 0.0496997833 0.440813214 
0.552545309 -0.320298582 0.615507841 
0.750868201 -0.0992611647 0.448740721 
0.0285458863 -0.0575738251 1.17890191 
-0.678615451 0.253202528 1.04204559 
-0.280148149 -0.34713316 0.561326027 
0.622584701 -0.580369413 -0.205049157 
-0.208605483 -0.308189869 -0.0661870688 
-0.678873062 0.338399112 0.359367311 
-0.119009197 -0.0908827931 -1.26952028 
-0.452606499 0.498976678 0.448204517 
-0.513250291 0.472212613 0.445000976 
-0.277698994 0.363532364 -1.2830441 
0.746883869 -0.56418699 -0.39370656 
0.689880967 -0.578776121 -0.691312313 
0.551911235 0.0888973922 -0.0676925182 
0.0181717873 0.393785894 -1.06589031 
0.45615831 -0.497470856 -0.105262369 
0.355474502 -0.467480063 -0.183048487 
-0.228296578 0.124474339 -1.01856828 
0.468220145 0.277059793 -0.364018798 
0.28093949 -0.207034826 0.829534471 
-0.0734323412 0.473444968 -0.0766685754 
-0.591240942 0.466841161 -0.0594590455 
0.70600605 -0.496578217 -0.136461854 
0.233475715 -0.497111499 -0.239833206 
0.344484955 -0.399062812 0.225601479 
0.449201673 -0.596847296 -0.507847905 
-0.319406033 0.385425329 0.959574819 
-0.192809388 -0.329763085 -0.633116841 
0.171603739 -0.501362979 -0.289832026 
0.298548549 -0.232350171 0.80705905 
-0.543785572 0.465468764 -0.279554814 
0.5116961 -0.633143008 -0.994073212 
0.627242684 -0.0280258507 -0.167409882 
-0.0764521509 -0.410250247 -0.974992216 
0.236342758 -0.390917003 0.304073721 
-0.146793664 -0.340279877 -0.416207254 
-0.37427333 0.51573956 0.456738144 
-0.117337316 -0.0582297593 1.14974523 
0.849851608 -0.506306827 -0.491812468 
-0.106688797 -0.392675996 0.0432217084 
-0.779229999 0.133379206 0.55545944 
0.835522413 -0.418006539 -0.438641787 
0.28268829 -0.340861559 0.662367284 
-0.825853229 0.158322096 0.809463322 
0.476203352 -0.513106942 -0.132077888 
0.315343469 -0.305487186 -1.17626357 
0.456660956 -0.652191579 -1.11554551 
-0.80746901 0.242802382 0.876612902 
-0.129220679 -0.135748118 0.941946149 
0.644309521 -0.638243735 -0.526570499 
0.400407881 -0.691391826 -1.19747162 
-0.531634569 0.414924204 0.820645094 
-0.258521587 -0.316583633 0.0150593966 
0.565299392 -0.362912536 -0.790293753 
0.408180743 -0.706424713 -1.09176469 
0.279224366 -0.67314893 -0.865861058 
0.0657801926 -0.533304334 -1.11004972 
0.0136447251 -0.15429914 -1.32253742 
0.440736085 -0.596099854 -1.1494565 
-0.764239728 0.19494763 1.20388865 
-0.518705845 0.377330005 0.887067318 
0.618319273 -0.363007247 0.307375848 
-0.0303963125 0.746245384 -0.469156325 
-0.155498564 -0.344399095 -0.355675578 
0.368241221 -0.582412601 -1.27008247 
0.3768951 -0.491578877 -0.314054608 
0.494537026 -0.678153276 -0.822262645 
-0.168779433 -0.30530718 -0.534549952 
0.461404353 -0.680279553 -1.01707172 
-0.243004173 -0.229866743 -0.914705694 
-0.509180427 -0.243753254 0.25909099 
-0.0727603436 -0.360447586 -0.0607931018 
0.615886569 0.0563496053 -0.198590636 
-0.270206153 0.192553043 -0.829278171 
-0.264831334 0.299375534 -0.980467141 
-0.224441454 0.553285956 -0.0881471336 
-0.279882431 0.648415804 -1.20562434 
0.260101825 -0.371275127 0.0328101814 
-0.108952016 -0.349061579 0.404933214 
-0.240518242 0.424973339 0.264609933 
0.0991508961 -0.422878146 0.303386122 
-0.762860954 -0.0122976899 0.795766532 
0.402911216 -0.713508368 -0.846855462 
0.716119766 -0.348625034 -0.0841974616 
-0.778141379 0.248473555 0.640041351 
0.785621405 -0.180078715 0.530298114 
-0.412752956 0.496574968 0.759623528 
-0.355336249 0.371473372 0.970241129 
-0.517374754 0.395170659 0.864740491 
-0.790921569 0.170867994 1.20677233 
-0.121410608 -0.164953083 -1.24290299 
-0.0196920633 0.440170377 0.0878501907 
0.226903439 -0.221023768 -1.23348641 
0.231903523 0.0902354419 -1.16019654 
-0.274060845 0.202607006 -0.79822284 
0.672640562 -0.197199523 -0.368050218 
0.389291495 -0.346600115 0.659405768 
0.0601516366 0.247227997 -1.11559749 
0.584010601 0.0257149264 0.041015178 
0.474020988 -0.579349697 -0.450105727 
0.776163578 -0.32830745 -0.652660728 
0.178958863 -0.319666892 0.794514954 
-0.064310804 0.56600219 -1.07479525 
-0.823422074 0.16775158 1.19574165 
-0.0322511047 0.16709353 -1.30159831 
0.17491895 -0.563698828 -0.883464336 
-0.0670532286 0.407194197 0.735218823 
0.775923729 -0.471198857 -0.247678965 
-0.142953515 -0.411854029 -0.828615129 
0.392605335 -0.434843957 -1.10989523 
0.379696697 -0.439773977 -0.0553400218 
0.208691239 -0.45898062 -0.14606528 
0.58411932 0.0340458006 0.27964443 
0.245063573 -0.337649316 0.44275704 
-0.224686742 0.563510895 -1.289469 
0.249324173 -0.244304657 -1.22074056 
0.788341761 -0.336607814 -0.549371243 
0.0905592144 0.601827443 -0.740896642 
-0.0797652006 -0.295625538 -1.16583586 
0.114736706 -0.289057285 0.645663619 
0.160078853 -0.309746712 0.821508765 
-0.050456509 -0.418163121 -0.390545368 
0.0340125561 -0.264523208 0.606117725 
-0.239963114 0.23552677 1.17959094 
0.598050952 -0.621567905 -0.767943323 
0.180059165 -0.764656484 -1.25330138 
-0.705993176 0.263978601 0.180379391 
0.674153447 -0.476961255 -0.717311025 
0.130734324 -0.544766605 -0.954504907 
-0.199860901 -0.270224243 -0.17231217 
0.595611095 -0.230258554 -0.79614532 
0.334535211 -0.573894143 -1.31349444 
-0.274147332 0.21946159 -0.758768678 
-0.264181882 0.236330912 -0.638836265 
0.486423641 0.0402771384 0.414390296 
-0.29210335 0.556881666 -0.619568884 
-0.212969556 -0.352722138 0.253081441 
0.229867131 0.526831746 -0.451045811 
0.380247861 -0.338760346 0.276511073 
0.558488727 -0.137127459 0.670307338 
-0.719732046 0.269206941 0.278776348 
0.540617466 -0.660722017 -0.716597021 
-0.577745318 0.132731229 1.24981284 
0.565452933 -0.458959222 -0.822862923 
-0.276923776 -0.120288134 -0.486907125 
0.332851499 -0.361309588 0.274218708 
0.690294981 -0.271155089 0.573656559 
0.0963471532 -0.459269404 -1.3095665 
0.180915236 -0.11774078 -1.23773837 
-0.275580078 0.231482297 -1.25544 
0.219724298 -0.335183352 0.735898495 
-0.229085863 0.0268030316 -1.21106291 
-0.158982947 -0.316133171 -0.216386139 
-0.535978794 0.469956487 0.488904327 
-0.203522816 -0.142059028 0.957318842 
0.298576742 0.370495319 -0.292094052 
0.0803715289 -0.455822051 -0.486421168 
-0.177956074 -0.0994382352 0.984703243 
-0.156956464 -0.373711288 -0.903927565 
-0.300153464 0.529949665 0.570153832 
0.466311246 -0.691396117 -0.818821907 
0.293929249 -0.533442736 -0.672744095 
-0.143811405 -0.3636747 -0.602207839 
0.401174933 -0.147701144 0.774754345 
-0.26948908 0.210177749 -0.607610047 
-0.189000249 -0.186732739 -1.02689123 
-0.668845057 0.128915966 0.0198656693 
0.381339103 0.295916378 -0.80094856 
0.411714107 -0.522072434 -0.480981052 
-0.0106092393 -0.475873947 -0.935640275 
0.419534773 0.241479844 -0.653869569 
0.133759558 0.368262708 -0.990798295 
-0.227725804 0.0839661062 -1.24675059 
-0.143219993 0.0604525581 -1.29049945 
0.815508485 -0.561761618 -0.617162704 
0.0181130469 -0.448294282 -0.245869905 
-0.176144183 -0.269116282 -0.996773541 
-0.0968734473 0.593062639 -1.08921289 
0.401973754 -0.41245389 -1.08880544 
0.334257454 -0.490959346 -0.561638772 
-0.198690325 0.67564559 -0.757917643 
0.639487863 -0.614933193 -0.688057303 
0.0436733365 -0.316477269 0.808285952 
0.23530665 -0.269446462 -1.24359989 
0.569032073 -0.056622982 -0.68044138 
0.53246069 -0.565245211 -0.345642209 
0.477841288 -0.228965104 -1.07147551 
0.0423083007 0.182155162 -1.1874516 
-0.683730006 0.35066843 0.501007855 
-0.276284456 -0.0681180656 -0.931620538 
0.341210276 0.356450528 -0.322804928 
0.28890869 -0.754793227 -1.05460644 
0.501384497 -0.512655735 0.20599401 
0.349434048 -0.443828344 -0.120325968 
-0.0281640291 0.311596543 0.854926229 
-0.442261636 0.324505329 0.985240996 
0.331147999 -0.308731854 0.738047302 
0.368209034 -0.420417666 -1.13947868 
0.726248145 -0.389040172 -0.0551205426 
-0.102890372 -0.0863093883 0.9834705 
0.198734969 -0.398895323 -0.0563503653 
-0.384153694 0.408571124 0.124903098 
0.436074585 -0.698208213 -0.998318732 
-0.221099034 -0.0413256735 1.26646852 
0.224013686 -0.179985046 0.872680247 
0.733510017 -0.299884111 -0.690721273 
-0.422799468 0.512509108 0.685204029 
0.174155772 -0.198060453 0.892604411 
-0.65563333 0.262991726 0.9699772 
0.811826229 -0.405744851 -0.35565877 
-0.153839946 -0.077335611 1.00425076 
0.722187042 -0.279802322 -0.475321174 
-0.230612442 -0.224942684 -0.459063292 
-0.518069565 0.542861462 -0.234729856 
-0.236586541 0.0187251419 -0.99364382 
0.0456234813 0.0732608661 -1.26817894 
0.671510935 -0.119296849 -0.342687607 
0.546139598 -0.648441076 -0.836590111 
-0.252326012 -0.205385208 -0.216677606 
0.302879602 -0.395694494 0.137786508 
0.504431367 -0.552909017 -0.376828045 
0.669918537 -0.53567332 -0.154536605 
-0.443667948 0.485054463 0.395797044 
0.589768291 -0.348386317 -0.770130575 
-0.20399788 0.246622354 1.11084294 
-0.532387614 0.479330331 0.572393537 
0.198611319 0.0546629056 0.746938407 
0.270681232 -0.394481719 -1.27659655 
0.557533145 -0.00700721145 -0.726051092 
0.214868695 -0.675247729 -0.975833714 
0.301541001 0.123976797 0.580389857 
0.264992088 -0.0472312719 -1.19391894 
-0.0297913402 0.648785412 -0.906596124 
-0.102344543 -0.365038753 0.377886295 
0.198185712 0.478087932 -0.405463368 
0.505434513 -0.12158218 -1.05230999 
0.652420759 0.0154365376 -0.280323923 
-0.114323318 0.0874809325 -1.30813646 
0.656391144 -0.349711478 0.293416739 
-0.260406613 0.656205475 -0.920299947 
-0.45891434 0.216661632 1.2345984 
0.252931148 -0.376936793 -0.00974737108 
0.604091287 -0.0213242471 0.0809062272 
0.129980683 -0.280452579 -1.33512926 
-0.109164223 0.253871232 -1.31877756 
0.00319367647 -0.216157168 -1.30777502 
-0.128418192 -0.19468838 -1.1495254 
0.669360042 -0.309064329 0.000973403454 
-0.457009703 0.511881053 0.54607594 
-0.734345555 0.269568861 0.380744129 
-0.21808432 -0.332161516 0.354870051 
0.721751213 -0.0768708885 0.314853787 
0.087780416 -0.309322983 0.731044769 
-0.204408437 0.661778331 -0.668205202 
-0.305820376 -0.319538444 0.334507018 
0.115534633 0.246935695 0.940514207 
-0.193894893 -0.298776388 -0.0973813385 
0.333735496 -0.169543386 0.813689947 
0.160939187 0.116573781 0.93678236 
0.185228616 -0.66608876 -1.31292748 
0.653701067 -0.10953258 -0.210762233 
0.624351382 -0.373871624 0.280298233 
0.225528091 -0.752815902 -1.0693295 
-0.301254272 0.479140401 -0.730791271 
-0.147701055 -0.163109988 -1.11080885 
0.751670599 -0.451122642 -0.159855574 
0.329956859 0.00673119724 0.620853484 
0.415649146 0.0074814409 -1.11302423 
0.214843214 -0.326912969 0.481326401 
-0.0849295259 0.432292342 0.238050565 
-0.00526592135 0.227034822 -1.22847247 
-0.242759094 0.674040318 -0.32746774 
0.513992667 -0.399812102 -0.894028544 
0.142502517 0.526642621 -0.39251402 
-0.160326153 0.69768703 -0.950323999 
-0.616392016 0.144126937 -0.199620456 
0.756186128 -0.591340959 -0.647351682 
0.12105608 0.024346441 -1.219136 
0.532736897 0.0893516243 -0.77079165 
-0.36709857 0.638459206 -0.174357295 
0.63972497 -0.047185868 -0.186112016 
-0.460831702 0.252508551 1.08267593 
0.726025224 -0.390607953 -0.702169955 
-0.332933515 0.309445739 -1.08816886 
0.648753643 -0.183408439 0.179624945 
0.34467569 -0.0870297998 0.771925092 
0.639477491 -0.602955699 -0.715332448 
-0.747030735 0.214671135 1.19153547 
-0.577708721 0.382232785 0.309311926 
0.619404197 -0.609486282 -0.741624117 
0.634337425 0.0232564285 -0.216191322 
0.68121779 -0.0218875706 0.290910006 
0.263333887 0.101237506 -1.14755416 
0.306866795 -0.26097244 0.785168946 
-0.0264946073 -0.413190305 -0.480395734 
-0.7369591 -0.00484545529 0.398304462 
-0.302924216 0.262270868 -1.24637055 
-0.0980707407 0.062809296 1.33302641 
0.202990949 -0.23263061 0.858338714 
0.762987137 -0.471263766 -0.216938525 
-0.075269565 0.0277348459 1.33132124 
0.64782393 -0.12100172 -0.466239631 
0.0451806784 -0.281834602 0.694220424 
0.176209688 0.101284921 -1.16418982 
0.166229635 -0.0875988305 -1.23791409 
0.408810526 -0.464815855 -1.10167408 
0.29383257 -0.31828922 -1.19655991 
0.171011031 -0.228109241 0.878420293 
-0.0676261336 -0.440618992 -0.933860958 
0.147846073 0.125500351 1.01070118 
0.642989635 -0.122590572 0.6043064 
0.293717414 -0.702795982 -0.880135477 
-0.253405809 -0.174612373 -0.530284047 
0.00661885738 0.119764239 -1.28694773 
0.406265169 -0.34672451 0.270301938 
0.785173893 -0.470637023 -0.275507987 
0.0423143506 0.753420234 -0.640419185 
0.715971112 -0.210331947 0.585352063 
-0.180091426 -0.00652395189 1.3010993 
-0.167189687 -0.112613201 -1.17274547 
-0.226917893 0.644889235 -0.690642059 
0.0233137012 -0.337559551 0.482972294 
-0.256096452 -0.0748683214 1.04519844 
-0.223002911 -0.0206492245 -1.01746082 
-0.525368631 0.233726725 1.17533159 
-0.0797273815 -0.257607549 0.8991943 
0.116953462 -0.173076719 0.936124623 
0.519111395 -0.044746533 -1.01611233 
0.678310156 -0.352840215 0.357652873 
0.112678736 -0.292955369 0.559683979 
0.521612167 -0.62517035 -0.436557889 
0.0740335286 -0.267637312 0.903409779 
0.0256763995 0.728346229 -0.718657494 
-0.0342238843 -0.381762028 -0.145660162 
0.272318989 0.220115721 -1.06491137 
0.652466655 -0.0398360491 -0.429367244 
0.688208461 -0.0384030044 0.353257656 
-0.214091569 -0.328803957 0.433374941 
0.579128623 -0.128187805 -0.864125907 
0.596406579 0.0484904796 -0.1508407 
0.0334614515 0.69178158 -0.378735483 
-0.489581764 0.495164603 -0.297495216 
0.288754612 -0.430882454 -1.27788854 
0.492892712 -0.115848243 0.701703787 
0.134889275 -0.0128321201 1.00671363 
0.634878516 -0.131077707 -0.168153226 
-0.142532915 -0.222184896 0.876337707 
0.551094174 0.0461015776 -0.579935789 
0.562980294 0.0849075988 0.152679861 
0.0134384632 -0.432329118 0.229232073 
0.60650301 -0.550058067 -0.0725692362 
0.42808798 -0.585605085 -0.53143549 
0.172167391 -0.603842735 -0.981944382 
-0.0484240651 -0.418525875 0.272621393 
-0.476415157 0.305142105 0.987707615 
-0.747284293 0.263452172 0.934697986 
-0.421610355 0.481305569 -1.09913945 
0.0508369207 -0.527333677 -0.805113912 
-0.220493376 -0.269083202 -0.294041604 
0.0547540784 -0.543391883 -1.14060307 
0.622336388 -0.0672711134 -0.509351671 
0.362507194 -0.381005943 0.250270367 
0.387854427 -0.0586528331 0.681215048 
0.292447954 -0.487541318 -0.218964368 
0.148250014 0.386279702 -0.132041425 
-0.777264595 0.180922076 0.555777311 
-0.04310444 0.5585711 -1.05943608 
0.227394938 -0.341928154 -1.30043101 
-0.25968352 0.646225154 -0.444388211 
0.256841391 -0.694310665 -0.926615059 
-0.500942647 0.518212199 -0.0670194775 
0.536118031 -0.663109064 -0.591439843 
0.63398087 -0.518737733 -0.0364641622 
-0.339286685 -0.0414337218 -0.190235376 
0.720047235 -0.332276642 -0.70614922 
0.321010798 -0.659591496 -0.783446908 
-0.0658428222 -0.367079735 -0.154072568 
-0.161892936 0.125513077 -1.2938807 
0.399023682 -0.622211218 -0.615076005 
-0.345885873 0.529930592 0.544855833 
0.164383531 -0.418354809 0.250708044 
0.701394677 -0.270108759 -0.357187182 
-0.300343007 -0.103264034 1.01393771 
0.181191504 0.564854622 -0.423292518 
-0.180676788 -0.309141427 -0.953958929 
0.64456296 -0.365650177 0.257435322 
-0.194955647 0.524693847 -1.2836566 
0.396368831 -0.714555323 -1.06207085 
0.526210666 -0.387430847 -0.867275774 
-0.0402601808 0.404453784 0.589065492 
0.131236285 0.410265535 -0.27779001 
0.0681534111 -0.204494238 0.944858253 
0.568249702 -0.0731128156 0.00897601992 
-0.128493458 0.0216967091 -1.28988457 
-0.0271864533 0.726202011 -0.772454202 
-0.131916285 -0.0609495342 1.17685771 
0.347932607 -0.494326591 -0.288137734 
0.346471518 0.30521065 0.17119202 
0.510941148 -0.533788562 0.131621435 
-0.0695180148 0.414978921 0.361256152 
0.60264945 -0.115545541 -0.657229185 
-0.0477567762 0.637460649 -0.960656464 
-0.567094088 -0.249232382 0.708882451 
-0.595052421 0.435069382 0.541859984 
0.424035102 -0.425958455 -1.05968475 
-0.428100824 0.351301908 0.968191862 
0.493447036 0.117098033 -0.933643639 
-0.0272995532 0.599738121 -0.985829532 
0.47356084 -0.606166482 -0.479292929 
0.379370481 -0.286489934 0.730569959 
0.193151832 -0.473241091 -0.550562799 
0.297262758 -0.755300939 -1.08365893 
-0.332649827 0.507939816 0.418487668 
0.508898735 -0.42430383 -0.911971331 
-0.293176413 0.489974618 -0.809478223 
0.374555618 0.274441779 -0.899172604 
0.0090765357 0.758978486 -0.626961648 
0.562460184 0.0542889535 0.25004676 
0.656706452 -0.00564393401 -0.377946407 
0.0246951878 -0.263414562 -1.30950522 
0.51157093 0.101782426 -0.644041419 
0.656265497 -0.206642985 0.196229398 
-0.479444057 0.257953554 1.0599153 
0.154344469 -0.507463694 -0.64162159 
-0.0904988647 -0.378752828 -0.227056712 
0.394725233 -0.581011057 -1.22234511 
-0.140657097 -0.0545463711 1.0575062 
-0.380979538 0.452698886 0.867726147 
0.322311431 -0.47636652 -0.198919892 
0.359023362 -0.434774995 0.11915569 
0.302534312 -0.0961935669 0.814785838 
-0.700838089 0.296039999 0.780421495 
0.032389164 0.0890493914 1.34581399 
-0.29702279 0.469019175 -0.867334783 
-0.180351689 -0.295970321 -0.123475209 
-0.166197911 0.414712906 0.869364679 
0.520651817 -0.499221861 -0.935133159 
-0.589754999 -0.0482419282 1.06791162 
0.221583426 -0.37401408 -1.32395887 
0.206425369 -0.405930817 0.255184054 
0.522896886 -0.497461319 0.220314726 
-0.274239153 -0.123829514 -0.529738009 
-0.137229249 -0.383505225 0.0378612503 
0.162400514 -0.341213554 -1.33734298 
0.573530197 -0.567128181 -0.882750928 
0.720543504 -0.33295548 -0.162280679 
0.149774253 -0.418081641 -0.0931773484 
-0.213117272 -0.0999576002 0.998765767 
-0.181894526 0.436071426 0.321394235 
-0.32589981 0.410282612 0.2193041 
-0.645914733 0.353805602 0.0589319095 
0.519926071 0.100232303 -0.871224165 
0.153750628 -0.463306665 -0.166870564 
0.0627421737 -0.0739845484 1.03434944 
0.717442393 -0.294018894 -0.34508124 
0.729964375 -0.604210138 -0.474363744 
-0.234375522 0.263489783 -0.850393474 
0.22279945 -0.388715327 0.337087721 
-0.593613744 0.192305565 -0.277694285 
-0.443620443 0.425748885 0.100507483 
0.255373567 0.385174245 -0.73043251 
0.111829549 0.0801420584 -1.19446182 
-0.456854224 -0.283759832 0.764773786 
0.184805483 -0.502937496 -0.373544306 
-0.102418795 -0.322038472 0.466189712 
0.00603428483 -0.467165172 -0.975234687 
0.583824873 -0.5535326 -0.0533089787 
0.735213876 -0.38423568 -0.0863780081 
-0.0882218033 -0.334465772 0.445864409 
0.41596213 -0.386700571 -1.07044291 
0.327982217 -0.402065456 0.0798090696 
0.478222221 -0.0325765014 -1.0680666 
0.0561893582 -0.462165952 -0.423062444 
-0.253553599 0.269571066 -0.651484132 
0.35842672 -0.149467319 -1.1692555 
0.432244092 -0.483478248 -1.07526755 
0.555475354 0.0637443066 -0.557841182 
0.576892853 -0.57629931 -0.18788904 
0.603427529 -0.226920485 0.0500554554 
0.803217411 -0.45405972 -0.666444778 
0.0583281517 -0.547631204 -1.26177907 
0.546653628 0.101700768 0.125332966 
0.134926081 0.0241558552 1.04496348 
-0.147936523 -0.388606071 0.251849532 
-0.642429709 0.172056496 -0.151120901 
-0.115818217 -0.350897074 -0.498217165 
0.430650443 0.290593952 -0.43531239 
0.136139274 -0.683125377 -1.11699963 
0.0947055519 -0.595296204 -1.27718639 
-0.841354728 0.0700334981 0.886933565 
0.448783427 -0.492614031 -0.303218633 
-0.0514502525 0.305627972 -1.24193263 
-0.597360075 0.426476449 0.654609084 
0.54342258 0.0567812994 -0.82996732 
0.579196453 -0.0658513457 -0.80641669 
-0.266209513 0.111939833 -1.20657086 
-0.487304389 0.232502848 1.18415427 
0.858644247 -0.414224029 -0.563903391 
-0.413281709 0.450182825 0.0378149115 
0.790376425 -0.358635813 -0.428644717 
-0.0745408535 0.0598046407 -1.31982827 
0.808558345 -0.475997686 -0.341444105 
-0.13297011 -0.40130043 0.122812614 
-0.0486077666 -0.473639131 -0.878480971 
0.519313216 0.122523688 0.102650598 
-0.20250082 -0.0137348324 -1.11980605 
0.236577302 -0.324152917 0.645257771 
-0.183185607 -0.265806168 0.795733333 
-0.799440503 0.246922761 0.810728312 
-0.0284748822 -0.210334182 0.952525795 
-0.757897854 -0.0427617431 1.04187346 
-0.0564375371 -0.30667457 -1.24813914 
-0.261461914 0.574473143 -1.29627013 
0.364922434 -0.707458735 -0.804757893 
-0.673447847 0.334487498 0.209121346 
0.214302331 -0.47144419 -0.527680337 
0.569719672 -0.579185605 -0.244134724 
0.650511861 -0.209305912 -0.197684109 
0.310363859 -0.574920833 -0.708691418 
0.478261381 -0.52445972 -0.0649250895 
0.649137497 -0.545100152 -0.739965737 
0.550266027 -0.29294312 -0.858131647 
0.0614548326 -0.506577015 -1.27973175 
0.0197393894 -0.267000347 0.581340253 
0.624694347 0.0901980102 -0.298285276 
0.413815528 -0.271235645 -1.11562943 
0.354243129 -0.475584567 -1.20445275 
0.425705403 -0.705022097 -0.970873058 
0.123659343 -0.143974006 0.945328832 
-0.279420495 0.605622292 -0.790644586 
0.544937611 -0.00329320133 -0.93292886 
-0.0381392092 -0.383449733 -1.05830598 
0.425667316 -0.313901603 0.450822532 
0.568726182 -0.146510214 -0.0175481588 
-0.519263148 -0.0514172018 1.06840861 
0.103469819 -0.0716045499 -1.28866172 
0.320543677 -0.453681231 -1.24431109 
-0.673205853 0.338624179 0.323268652 
-0.288323969 -0.307704568 0.0688292757 
0.389798671 -0.713547051 -0.817110956 
0.0925793648 -0.359796464 0.459476918 
0.691560507 -0.0961180627 0.239259854 
0.713230848 -0.355846703 -0.0496286601 
0.435242683 -0.688643813 -1.08509278 
0.542881131 -0.330379456 0.365956604 
-0.718345761 0.228838295 0.232139423 
0.182281256 -0.411785841 0.272787005 
0.349870771 -0.308420926 0.400616318 
-0.0661319047 -0.056542784 1.11518359 
-0.0731968433 -0.36615181 0.397136092 
0.190075368 0.424213707 -0.761767924 
0.267802507 -0.00747784972 0.687918067 
0.194119513 -0.40046066 0.143578649 
0.403351873 0.226165712 -0.0432904959 
0.660853744 -0.0166215152 -0.291618377 
0.156364888 0.093322888 0.959218919 
-0.816268682 0.122516468 0.757091999 
-0.128992513 0.699355066 -0.475446403 
-0.0228677839 -0.480605423 -0.682388544 
0.0678475797 -0.0435444266 1.16816163 
0.19432798 -0.508659959 -0.646718562 
0.519199133 -0.545860171 -0.179468453 
0.242885441 -0.0699696094 -1.20276308 
0.586885095 -0.0141430795 0.0466855466 
0.798976421 -0.423182666 -0.291725039 
0.526419401 -0.291555941 -0.956847966 
0.0901866257 -0.535037279 -0.76147759 
0.421832114 -0.682310045 -1.15681148 
0.524541974 0.109059066 -0.795417249 
0.221578777 0.580787539 -0.512767732 
-0.30790475 0.530465841 0.606137514 
0.611279368 -0.224998385 -0.072831884 
0.422889203 0.0999014527 -1.05761266 
0.0914924741 0.696864188 -0.658815324 
-0.0255748481 -0.491010189 -0.861808419 
-0.436072648 0.42735821 0.269321501 
0.0254740417 -0.425796807 0.114150524 
0.0289616883 -0.509167552 -0.891572595 
0.109438568 0.0998942703 1.21763802 
-0.428230017 0.549996734 -1.2114501 
0.154337615 -0.417094946 0.287957877 
-0.268389702 0.605317831 -1.28602648 
0.437440127 -0.41551578 0.258437872 
0.660447359 -0.342899501 0.255843967 
0.53745842 -0.258639812 -0.956858933 
0.438077003 -0.50943625 0.0865415111 
0.333419412 -0.482436895 -0.499624133 
-0.206690192 -0.276511133 0.779259384 
0.38063553 -0.494442999 -0.406311035 
-0.0904509872 0.544825137 -0.253878742 
-0.750469208 0.29088074 0.617486417 
0.417901367 -0.493029594 0.100191019 
0.561013699 -0.604936302 -0.373342156 
0.362834185 -0.678515196 -0.745025694 
0.610789299 -0.173839808 -0.777169585 
0.452786475 -0.485268295 -1.04091048 
-0.240774885 -0.226039171 -0.578195691 
-0.377126485 0.196984887 1.26473165 
-0.241877407 -0.289095342 -0.821329355 
0.658055067 -0.265875041 -0.141393721 
-0.229277983 0.672641695 -0.269883484 
-0.764298797 0.146989644 0.472305238 
0.150683224 0.0465445369 0.977047801 
0.111470133 0.541992307 -0.75407517 
-0.449860454 0.474541098 0.372243196 
0.0945839882 -0.0564251393 1.02747786 
0.569841027 -0.14943549 -0.913084567 
0.157930195 -0.164555222 -1.28002644 
0.629521728 -0.134599566 -0.531484842 
0.703681946 -0.600125074 -0.406129658 
0.225810707 -0.0221643597 0.775431037 
0.283384651 0.0512738675 -1.16337585 
-0.108903527 0.430339009 -1.23509431 
0.164164752 -0.767464757 -1.22678471 
-0.242386252 0.310037911 -0.749641597 
0.0677983463 -0.570361495 -1.14081621 
0.451414675 -0.0537034124 0.616433263 
-0.258431494 0.531106651 -1.30449104 
0.00278031826 -0.0160261542 1.32779288 
-0.755802631 0.180661619 0.430128455 
-0.211973801 -0.323792577 -0.856221735 
0.586142182 -0.195538223 -0.027752988 
-0.611180186 0.158561692 -0.232753456 
-0.322577477 0.470716238 0.327752411 
-0.378008634 -0.24203375 0.872488499 
0.149034679 0.660380065 -0.594153583 
-0.623338461 0.378830552 0.385793418 
0.57474041 -0.190965056 -0.86957109 
-0.773033023 0.00348475575 0.677039027 
0.150988519 -0.526724219 -0.691621304 
0.505709529 -0.54742229 -0.0149823353 
0.861238837 -0.516628861 -0.559051573 
0.695419431 -0.311237127 -0.137442738 
-0.676034391 -0.173619777 0.451972365 
-0.104963437 0.579931021 -1.10950875 
0.325691789 -0.740904689 -1.2172761 
-0.171732992 -0.142415255 0.945340276 
0.725759149 -0.43421191 -0.0664013773 
0.138343424 -0.41407001 0.321302801 
-0.0172286928 0.463319302 -1.0762465 
0.0931017101 -0.229608417 -1.33333087 
0.0432040393 -0.391582847 -0.0854129493 
-0.0940962583 -0.390063405 -0.275684685 
-0.740013361 -0.0458159894 1.13422799 
0.297248095 -0.395890415 0.166968927 
0.693135142 -0.254990399 -0.381697088 
-0.0260300636 -0.434741259 -0.37265411 
0.315704912 -0.746710241 -1.00996614 
-0.091373384 -0.450915873 -0.852728009 
-0.313993037 -0.286997378 0.086317867 
-0.246441871 -0.326702446 0.334974051 
0.257273883 -0.390390098 0.259443194 
0.473093241 -0.190809399 -1.08575225 
0.139963478 0.0176622942 1.011374 
0.0449592173 0.0482673571 -1.28396344 
-0.0756378174 0.720468521 -0.447377026 
0.382651299 -0.494897604 -0.451785445 
0.726441503 -0.615047932 -0.500551283 
0.312390298 0.386583567 -0.401186943 
-0.263147682 0.20400922 -1.0528686 
-0.38120845 0.442518979 -1.05687547 
-0.703292966 -0.0512108654 0.325970531 
-0.0678324401 0.661199391 -0.963692248 
0.194510877 0.14491047 -1.13808107 
0.715982914 -0.500271261 -0.166346788 
0.485571891 -0.510801673 -0.304266214 
-0.214275613 0.0431197211 -1.24171448 
0.634637713 -0.254873008 -0.0766757727 
0.0932783782 -0.399589658 -0.0766389817 
-0.194303185 0.550798833 -1.27189898 
0.545613289 -0.285063624 -0.892876029 
0.454090089 -0.163452923 0.745126307 
-0.224923387 -0.210136861 -0.966453969 
0.640687585 -0.137332082 -0.49700737 
0.464080125 -0.538762808 -1.06604314 
0.272148043 0.168427765 -1.10621381 
-0.0420907736 -0.264382273 0.706434906 
0.381955892 -0.0274479389 0.621803403 
-0.00848916173 -0.407584608 -1.09965897 
-0.233833015 0.167570114 -0.982749164 
0.195371628 -0.376203239 0.00523064286 
-0.145138696 0.705311537 -0.849447131 
-0.0263393968 0.399458289 -1.118958 
0.127019644 -0.0263424069 -1.23896098 
0.494445413 -0.649461389 -0.5234887 
-0.25734055 -0.262029916 0.835637748 
0.602727532 0.126082703 -0.378791124 
0.704970956 -0.0502875447 0.36248666 
-0.510376811 0.198598281 1.24386668 
0.0828033984 0.0579958111 1.30404758 
-0.0480395257 0.00653254986 1.33082747 
0.0146279037 -0.514616907 -0.775797963 
0.774095893 -0.314822495 -0.62362802 
-0.79409492 0.156514898 0.638943017 
-0.230376631 -0.30865249 -0.0435236543 
0.649987459 -0.584140062 -0.259506851 
0.293268889 0.188642591 -1.08288646 
-0.256596982 0.0898914188 -0.941026032 
0.332862407 0.360060751 -0.516493559 
-0.372886628 -0.328641266 0.692444861 
0.391202241 -0.707002759 -0.785323679 
-0.262604624 -0.233147264 -0.857326984 
-0.268905759 0.101936556 -1.1784277 
0.410317272 -0.0325675607 0.607411921 
0.695909142 -0.625351071 -0.485235393 
-0.230684921 0.673355579 -1.02192283 
0.567897081 -0.0277486742 -0.596534431 
0.434006184 -0.402495742 -1.04309893 
0.00897684693 -0.391613901 -0.00142320246 
-0.234494567 0.668396771 -0.393734604 
0.616748214 -0.360891938 0.534221768 
-0.145210549 0.0962463468 -1.29620314 
-0.150586292 0.610595465 -0.267591596 
0.394255191 0.0355728865 -1.11726236 
-0.251397163 0.123100273 -0.934924185 
0.550160766 0.0195020065 -0.878700912 
0.0429236293 -0.430452526 0.264290005 
-0.219145015 -0.331075937 -0.768727243 
0.148466289 -0.392987669 0.0611324012 
-0.0891876221 -0.296340883 0.519824266 
0.737122297 -0.560052156 -0.360797286 
-0.642298877 0.196938828 -0.179970801 
-0.863385201 0.142145053 1.16984558 
-0.279669911 0.267402411 -1.03195429 
-0.306990057 0.293002874 1.03711224 
0.480481833 0.105202079 0.309335083 
0.257013708 0.500330806 -0.52501744 
-0.211947024 0.680345237 -0.987776935 
-0.0935860574 -0.395586431 -0.324488282 
0.254340559 0.510473549 -0.478776634 
0.466775864 -0.0681497157 0.638082206 
0.602524519 -0.107374966 -0.11096783 
0.589303493 -0.166616648 -0.0728982687 
-0.731144905 -0.0331360996 0.952872932 
0.0497249067 -0.47934258 -1.02579021 
0.222489238 -0.286858231 -1.27068996 
-0.16252926 0.556646943 -1.22101903 
-0.821106076 0.206547618 0.827905655 
-0.182094038 0.64108938 -0.270060956 
-0.347103894 0.457935661 0.866001248 
-0.358516872 0.459500581 -1.00497198 
-0.092315957 0.722664595 -0.620009243 
0.605083466 -0.164135128 -0.109818086 
-0.341682881 0.6571365 -0.248849481 
-0.428217858 0.572715402 -0.151997 
0.325791806 0.0332368761 0.602823257 
-0.00189355016 -0.289361447 0.755277455 
0.745482564 -0.618811727 -0.563266575 
-0.136141971 -0.346454024 -0.554361463 
0.268707007 0.371909678 -0.0416717604 
0.2437177 -0.504555523 -0.280220717 
0.130325913 0.050581634 -1.20011497 
-0.142710581 -0.401968122 -0.685220242 
0.352808982 -0.421657264 -0.044804886 
0.532770514 -0.208691776 -0.99969548 
0.485682636 -0.55874157 -0.411630899 
0.0299867392 -0.293750972 0.73854506 
0.739988565 -0.623340487 -0.59120822 
0.128032774 -0.740019977 -1.21974063 
-0.738673449 0.247656614 1.0819366 
0.670445442 -0.0762688071 -0.319702446 
-0.122975305 -0.364808857 -0.402064383 
0.543540835 -0.0512126684 -0.967903554 
0.319920748 -0.400919855 0.110348083 
-0.280537933 0.34577921 -0.541996896 
-0.200062633 -0.0166343749 -1.08328676 
0.382972926 0.019314155 0.569049478 
0.651843905 -0.4963184 -0.0185890421 
0.411919147 -0.55882448 -1.17571235 
0.0973927379 0.375807464 -1.01089263 
0.663779497 -0.517701209 -0.726106882 
-0.0607321113 -0.41763413 -0.321980715 
-0.463521719 0.493526459 0.716724515 
0.163558632 0.0535271987 0.912624717 
0.67828083 -0.598008811 -0.353073716 
0.369901329 -0.728673398 -0.978057802 
0.780204177 -0.35366267 -0.392557651 
0.288659602 0.0954427347 -1.14214826 
0.3799465 -0.559037149 -0.587210774 
0.0902497768 -0.53806293 -0.797778487 
0.424014479 -0.694993615 -0.728377521 
-0.135680974 -0.115854979 0.956773162 
0.271262735 -0.685878813 -0.893753529 
0.685582638 -0.244689524 -0.341915399 
-0.252924681 0.256825835 -0.773222864 
-0.363591999 -0.00741070509 -0.16534017 
0.542433262 0.207030028 -0.286656141 
0.251460463 0.325409651 -0.947445452 
0.133885056 -0.379021347 -1.33570337 
-0.457174897 0.144685492 -0.256108314 
0.331262439 -0.0697321147 0.752132177 
-0.324540496 0.507213712 -0.6184147 
-0.245482892 0.105368078 -1.10584784 
0.725636005 -0.306255966 0.346346974 
-0.622485161 0.474193811 -0.116420627 
0.524766564 0.0795345455 -0.896220505 
-0.0237307698 -0.310829729 -1.27407765 
0.195944935 -0.270384878 -1.29473186 
0.588859797 -0.104544595 -0.803221703 
-0.253396124 -0.177665412 -0.933651745 
-0.324436784 0.23609063 1.17194676 
0.675620079 -0.220701933 -0.503347337 
0.0474153459 -0.512787044 -1.12547541 
-0.72845459 0.0284488499 0.337912261 
-0.63343066 0.341418684 -0.273940891 
-0.21405372 0.664649606 -1.1433804 
0.511960745 0.0240763202 -0.990045488 
-0.197279394 -0.180929929 0.920444131 
0.137388647 -0.24095434 0.888688207 
-0.46437639 0.505011261 0.660971522 
-0.238877952 -0.169660211 0.944509029 
-0.570109546 0.493325561 -0.0570486784 
0.538612485 -0.374871373 -0.840975344 
-0.334885061 0.566970587 -0.487624168 
0.542192221 -0.354077935 0.462608755 
0.3064138 -0.309474677 0.516254187 
-0.095996365 -0.403521359 0.0731970072 
-0.275480658 -0.331516922 0.666065097 
-0.168800592 -0.388934433 0.170973033 
0.524763823 0.227970868 -0.363346279 
-0.813882232 0.237124652 1.087075 
0.582016826 -0.0697379708 -0.77391988 
-0.418714285 0.503802776 0.432474107 
0.719066858 -0.311848432 -0.264916629 
0.561018348 -0.294177026 -0.824904144 
-0.190228492 -0.282881796 -0.146548986 
0.00828236341 -0.038856104 1.30834794 
0.400979191 -0.716032267 -0.975852191 
-0.0629409403 -0.0638536513 1.21092772 
0.00859373808 -0.448011935 -0.394844115 
0.588536978 0.0359999835 -0.522779226 
0.0557987988 -0.284907967 -1.32028985 
0.579313159 -0.055650562 -0.594988763 
0.328459769 -0.200591236 -1.17764974 
0.75792551 -0.595112801 -0.505861223 
0.531145334 0.082438834 -0.731244981 
0.415148407 -0.708078921 -0.81275779 
-0.0131727457 -0.333770096 0.47714892 
-0.751284003 0.289165735 0.583336771 
-0.710389018 0.240426049 1.13025498 
-0.720836759 0.0361305699 0.306132346 
-0.440083861 0.465831071 0.815858662 
0.153732687 -0.293177903 0.601723373 
0.409528345 -0.319983095 0.481587738 
0.0250303447 -0.233484298 0.944980264 
0.346537501 0.073879756 0.568254828 
-0.00179997087 0.361445636 0.640347123 
0.50725162 -0.264925122 -1.0153718 
0.628169179 0.0190164149 0.266541958 
0.0293638408 -0.459275365 -0.27347517 
0.650785327 -0.014582932 -0.231421292 
0.451323897 -0.300574511 0.381694615 
0.342167407 -0.676943481 -0.773307979 
0.758814216 -0.119751751 0.501550078 
-0.355793953 0.622694135 -1.16576862 
0.651821256 -0.620440304 -0.387506753 
-0.261234045 -0.246081769 0.861924112 
-0.237584248 -0.0147158504 -0.994799912 
0.171455145 -0.382239699 -1.3399353 
0.16308558 -0.470425129 -0.519695938 
-0.206217274 0.40759334 0.0652665868 
0.528540969 -0.657807767 -0.861098289 
-0.0729456246 -0.263014317 0.700624943 
-0.596299648 0.181848764 1.24199867 
-0.675674736 0.358877629 0.56185621 
0.361586124 -0.427724838 0.0585172474 
-0.187920213 0.665368736 -1.11901808 
0.467776865 -0.529507995 -0.398210436 
0.790604472 -0.520553589 -0.383101106 
0.33712849 -0.480470955 -1.23894763 
-0.0201170146 0.0204984322 1.33753395 
0.563123465 -0.648061037 -0.728055656 
0.103280604 0.745157897 -0.58287859 
0.114330888 -0.697151244 -1.24535584 
0.0566341877 -0.594187617 -1.21335673 
0.242938846 -0.498598039 -0.416481942 
0.659099579 -0.385828257 0.171757698 
0.17766127 0.389904439 0.0259426832 
0.781551361 -0.442180693 -0.230287194 
-0.589551985 0.2335255 -0.283935666 
-0.862453818 0.141525015 0.996029198 
-0.473946095 0.479926109 0.411705673 
0.0551713705 -0.0390160233 1.27428389 
-0.118009418 -0.0621421635 -1.27765179 
0.209990829 -0.332921296 0.706075132 
0.722596049 -0.607729077 -0.650704145 
0.119747341 -0.540100873 -0.888559282 
-0.22952491 -0.347584903 0.227449447 
0.122664928 -0.0634362996 -1.26389146 
0.209670514 -0.506007254 -0.35679087 
0.419029623 -0.480241776 -0.230056345 
0.853594184 -0.46242553 -0.637899756 
-0.216773182 -0.239288002 -0.488563597 
0.698708534 -0.158295035 0.595779955 
0.339387327 -0.448313057 -1.20646596 
-0.210857391 -0.340652496 -0.735701799 
0.797852516 -0.231050909 0.495445997 
-0.266599238 -0.140503317 0.976794183 
0.213055998 -0.403227389 0.204490453 
0.504919171 -0.615563869 -1.02058125 
-0.0127937794 -0.294781446 0.906014502 
0.867522478 -0.451348364 -0.605983198 
0.170241266 -0.517565429 -0.667124987 
0.865694165 -0.477914214 -0.507038236 
0.619125128 -0.252256423 0.0121487379 
0.642178535 -0.284195393 0.0557548255 
-0.579667091 0.433811307 0.686582804 
0.829686403 -0.465126157 -0.396803766 
-0.447084337 -0.140057206 0.957763493 
0.478429884 -0.63140887 -1.07429624 
0.164142042 -0.742649436 -1.13187599 
0.508782983 -0.454703212 -0.924458206 
-0.533556819 0.434039265 0.782265663 
-0.288908362 0.393867791 -1.28313494 
0.494288832 -0.542284369 -1.01542282 
0.609107733 -0.639240444 -0.593638539 
-0.532750964 -0.270647973 0.711961508 
0.395249039 -0.455616653 -0.119040951 
-0.456251681 0.186339155 1.25869036 
0.269245476 0.135757834 -1.12799835 
-0.103115484 0.66562134 -0.365603179 
-0.0576356798 -0.301532567 0.509012103 
-0.00945645571 -0.275288284 0.926143467 
-0.385434031 0.530776978 -0.431936145 
0.283416003 -0.146660596 -1.19713545 
-0.0974882692 -0.144521594 -1.26886368 
0.795044422 -0.392475963 -0.316673607 
-0.267445177 0.112881981 1.3064065 
0.0815490782 -0.564261317 -1.27747512 
0.522221208 -0.540051639 -0.272533208 
0.406000167 -0.573193491 -0.555939138 
0.559152961 -0.0236108899 -0.897408962 
0.134465486 0.0630171895 1.07432246 
-0.0587125123 -0.423850656 0.205418542 
0.183212221 -0.415325224 -0.0831788182 
0.208433628 0.0500580519 0.716610372 
-0.504852951 0.402688593 0.270120502 
-0.0441429168 -0.424418032 0.236313835 
0.145933926 -0.32834515 0.774821341 
0.478381544 -0.474098325 -0.989206731 
0.345568687 -0.738409877 -1.05172849 
0.307082027 -0.438630879 -0.114648581 
-0.194049329 -0.373631358 0.0985393971 
-0.259820074 0.0395460054 1.29947972 
-0.30297488 0.539173365 -1.29566646 
0.567487359 -0.0554457307 -0.646559417 
0.0887032747 -0.415609181 -0.11201337 
0.0185138881 -0.139432311 0.98815757 
-0.16877234 -0.367354274 0.0237094164 
-0.0569532365 -0.397803545 0.338736564 
-0.414233804 -0.344715923 0.571504116 
-0.257760584 0.504102111 -1.30568075 
0.00201037526 0.362338066 0.583758771 
0.564897299 -0.101952925 -0.925670445 
0.625541568 -0.358851135 0.388347387 
0.622230291 0.0389219671 0.177505165 
0.484226555 -0.514622986 -0.176789522 
0.676387668 -0.21988976 -0.434327602 
0.123976886 -0.465636551 -0.53300184 
-0.769995332 0.229879707 0.544130445 
0.170452893 0.0479167551 0.877408564 
0.160529405 -0.502021372 -0.335887253 
-0.201167405 0.3505283 0.963112772 
-0.0617358834 -0.344634384 0.441999435 
0.0537661612 0.597238541 -0.364357769 
0.288877338 -0.342063963 -1.21154618 
0.140857965 -0.253671199 -1.32960916 
-0.186550945 0.192054763 -1.29451036 
0.152207762 0.561608613 -0.405367196 
-0.111995474 -0.370810807 -0.252362102 
0.673294783 -0.628864169 -0.463817179 
-0.211916476 0.669512868 -0.324693769 
0.23235479 -0.473442256 -0.559599996 
-0.0455957502 -0.320277929 0.483831674 
0.291356713 -0.422936201 -0.0882494003 
0.367190093 -0.508584559 -0.545253158 
0.702337861 -0.475747168 -0.703631759 
-0.179179117 -0.0870733857 -1.18065143 
-0.335123926 0.205610216 -0.332268238 
-0.602763414 0.137558237 1.24543643 
0.758898854 -0.584909976 -0.477875054 
0.537795663 -0.528359354 -0.927956402 
-0.0540807396 0.217687398 1.28434825 
0.105667204 -0.649048626 -1.14145231 
0.479446203 -0.682637095 -0.675342441 
-0.261203438 -0.211083233 -0.342539698 
0.445367604 -0.193033159 0.743680298 
0.192588359 -0.579910159 -0.900670767 
-0.487570345 0.501158953 0.548644066 
0.0769942701 -0.457047105 -0.542785227 
-0.0764305592 -0.307003498 -1.10339499 
0.558416963 -0.252426207 -0.882630348 
0.597444892 -0.104133934 -0.718645751 
0.549502254 -0.152347475 -0.973874152 
-0.0414988697 -0.258379996 0.59908396 
-0.710961759 0.302087426 0.278908491 
-0.264275998 0.245838538 -0.708095908 
-0.265033573 -0.321954042 0.305446029 
-0.252423495 0.000353336334 -0.97134012 
-0.749194205 0.28822583 0.679831386 
0.0104944706 0.687201262 -0.798566461 
-0.179521739 -0.0511506349 1.26313734 
-0.0299234241 -0.339417368 -1.25947499 
0.232966751 0.0627849251 -1.17021036 
0.427134067 -0.57047075 -1.15688348 
0.366920263 -0.729758739 -1.00736856 
-0.161616415 -0.308155626 -0.50629884 
0.57792747 0.0682781935 0.185198396 
0.222836405 0.0580922365 0.686017394 
-0.301451355 -0.154227644 -0.170349568 
0.520896077 -0.604080379 -0.992539108 
0.401213855 -0.261644244 0.734320104 
0.162289113 0.0825381577 0.924189687 
0.632599354 -0.531062245 -0.0653339624 
-0.168829918 -0.38657552 -0.724768519 
0.271293074 -0.635202408 -0.83949697 
0.276548237 -0.733700454 -0.962251484 
-0.0226949155 0.444276661 0.12633881 
-0.16527462 -0.111888051 -1.14031363 
-0.275927693 -0.0531924367 1.2327733 
0.0891929269 -0.644441247 -1.17228675 
-0.231358245 0.0613834709 1.30795407 
0.557109594 -0.0406990647 -0.921546519 
0.01042521 -0.305178702 0.788627446 
-0.062244162 -0.411205232 0.078832373 
0.0642636418 -0.388118386 -0.0553021431 
-0.179454029 -0.0799377114 -1.19999099 
-0.288586199 0.397870183 0.944411337 
0.0148748159 0.751492143 -0.663699448 
0.572538614 -0.122909218 -0.899476111 
0.818594098 -0.401589692 -0.39734596 
0.649635673 -0.0949999541 0.165650308 
-0.316219389 0.6374259 -1.06056142 
-0.10769403 -0.267638117 0.722059071 
0.592516899 -0.519461811 -0.823368907 
0.11517337 -0.539398491 -0.757493019 
0.636054873 -0.159871697 -0.611538172 
0.33659181 -0.0278667808 -1.16742253 
-0.606211603 0.424273938 0.611171842 
-0.022411868 -0.257531077 0.667460501 
-0.246594772 -0.184951186 -0.499782383 
-0.050031513 -0.272121966 0.565068841 
-0.179270923 -0.0220194906 -1.24819541 
0.287187964 -0.592182338 -0.764482498 
0.669822216 -0.0762971342 -0.349479765 
0.416634053 -0.30065915 0.317949653 
0.197078794 0.102081865 0.734608412 
0.257744759 -0.481819808 -0.196127415 
0.615513802 0.107021824 -0.360296428 
-0.321830094 0.52456516 0.678312302 
0.756136298 -0.249110967 0.370147616 
-0.710325837 0.32329613 0.626042902 
-0.470761955 0.432455003 0.083218731 
-0.338385224 -0.0535638928 1.21566153 
