ply
format ascii 1.0
comment created by gply, a Houdini tool.
comment converted from .[b]geo
comment for more information about Houdini, try:
comment www.sidefx.com
element vertex 929
property float x
property float y
property float z
property uchar red
property uchar green
property uchar blue
element face 0
property list uchar int vertex_indices
end_header
0.0212534666 0.0612664223 0.381641865 118 110 94 
0.020003438 0.0356414318 0.352266788 46 42 30 
0.0350034237 0.0912665129 0.452891827 134 130 118 
0.00937843323 0.0943914652 0.459766865 62 66 50 
0.0437534451 0.0925164223 0.448516846 46 46 26 
0.0487534404 0.0937664509 0.446016788 54 50 22 
0.0468784571 0.0912665129 0.446016788 62 58 38 
0.0293784142 0.0912665129 0.444766879 118 118 98 
-0.0699965954 0.0675164461 0.462891817 62 58 50 
0.0125034451 0.0787664652 0.438516855 78 74 66 
-0.0262465477 0.0750164986 0.44914186 74 66 46 
-0.0543715954 0.0712664127 0.45476687 70 62 50 
-0.0612465739 0.0681414604 0.45476687 78 74 66 
-0.0499965549 0.0725164413 0.453516841 66 58 50 
-0.0312465429 0.0750164986 0.446641803 122 118 106 
-0.0193715692 0.0750164986 0.442266822 58 50 38 
0.0256284475 0.0768914223 0.427266836 62 58 50 
-0.0387465954 0.071891427 0.444766879 94 86 74 
0.0412534475 0.08939147 0.426641822 118 114 102 
0.0212534666 0.076266408 0.426016808 98 94 82 
0.0462534428 0.08939147 0.420391798 86 82 70 
-0.089371562 0.0631414652 0.449766874 94 90 86 
-0.0968715549 0.0412664413 0.441016793 34 34 18 
-0.0343715549 0.069391489 0.43351686 42 34 22 
0.0481284261 0.0887664557 0.416016817 114 110 98 
-0.0474965572 0.0650165081 0.430391788 90 78 66 
-0.000621557236 0.060641408 0.39664185 106 94 74 
0.0350034237 0.0687664747 0.38101685 122 110 90 
0.0443783998 0.0831414461 0.369141817 86 86 38 
0.0375034213 0.0812664032 0.364766836 82 78 38 
-0.0793715715 0.0681414604 0.473516822 130 126 118 
0.0106284618 0.0768914223 0.446016788 54 46 34 
-0.0106215477 0.0787664652 0.453516841 62 54 38 
0.0131283998 0.0768914223 0.44351685 54 46 34 
-0.00749659538 0.0781414509 0.449766874 78 70 54 
0.00750344992 0.0756415129 0.442891836 86 78 66 
-0.0518715382 0.0725164413 0.456641793 122 114 106 
-0.0662465692 0.0637664795 0.44914186 50 42 34 
0.0168784261 0.07376647 0.42789185 78 74 62 
-0.0612465739 0.0643914938 0.444766879 86 78 70 
-0.0543715954 0.0650165081 0.441016793 102 94 82 
-0.00562155247 0.0712664127 0.42789185 74 66 58 
-0.0331215858 0.0687664747 0.43351686 38 30 26 
0.0275034308 0.0725164413 0.412891865 90 86 74 
-0.0887465477 0.0368914604 0.429766893 90 134 54 
-0.0287465453 0.0668914318 0.419141889 90 74 62 
-0.0237465501 0.060641408 0.410391808 50 42 22 
-0.0287465453 0.0618914366 0.411641836 94 94 66 
-0.025621593 0.0593914986 0.406641841 106 118 78 
0.0300034285 0.0675164461 0.373516798 110 98 90 
0.0212534666 0.0493915081 0.363516808 62 58 50 
0.0325034261 0.085016489 0.352266788 86 78 58 
0.0462534428 0.091891408 0.444141865 114 118 98 
-0.0649965405 0.0687664747 0.460391879 78 74 66 
-0.0124965906 0.0756415129 0.442891836 90 82 70 
0.00125342607 0.0743914843 0.432891846 98 86 74 
0.0475034118 0.0881414413 0.414141893 46 46 34 
0.0343784094 0.0806415081 0.363516808 74 70 42 
0.0518784523 0.0931414366 0.438516855 82 90 74 
-0.0143715739 0.069391489 0.428516865 78 74 66 
0.0162534118 0.07376647 0.426016808 66 58 46 
0.0137534142 0.07376647 0.425391793 70 62 46 
0.0100034475 0.0668914318 0.411016822 50 46 34 
0.0275034308 0.0668914318 0.398516893 82 74 66 
0.0306284428 0.0712664127 0.367266893 138 126 110 
0.035628438 0.08939147 0.352266788 102 94 74 
-0.0337466002 0.0743914843 0.442891836 90 78 62 
0.00625342131 0.0756415129 0.43914187 62 54 46 
-0.0456215739 0.0643914938 0.42351687 106 98 74 
-0.0231215954 0.0681414604 0.424141884 46 38 26 
-0.0287465453 0.0656414032 0.416016817 98 90 66 
0.0281284451 0.0725164413 0.412891865 86 86 74 
0.0293784142 0.0681414604 0.37101686 142 130 114 
-0.0774965882 0.0681414604 0.472266793 122 114 110 
-0.00499653816 0.100641489 0.464141846 106 106 86 
-0.0774965882 0.0656414032 0.462266803 66 62 58 
-0.088121593 0.0612664223 0.461016893 102 102 94 
-0.0693715811 0.0668914318 0.45914185 78 70 62 
-0.0187465549 0.0787664652 0.455391884 74 70 50 
0.020003438 0.0818914175 0.442891836 34 34 18 
-0.0556215644 0.0656414032 0.441641808 94 82 70 
-0.0674965382 0.0643914938 0.439766884 66 58 50 
0.0162534118 0.0706415176 0.416016817 66 62 54 
0.0287533998 0.0712664127 0.40789187 98 94 82 
0.0262534618 0.056266427 0.368516803 50 46 42 
0.0418784618 0.0900164843 0.359141827 90 90 38 
-0.0487465858 0.0731414557 0.453516841 82 74 66 
-0.0468715429 0.0706415176 0.44351685 50 46 38 
-0.0137465596 0.0731414557 0.436641812 50 42 38 
-0.0906215906 0.0431414843 0.436016798 34 34 26 
-0.0431215763 0.0668914318 0.432891846 66 58 54 
0.00375342369 0.0668914318 0.414141893 70 66 54 
-0.0487465858 0.0656414032 0.429141879 122 114 106 
-0.0181216002 0.0643914938 0.41226685 42 34 34 
-0.0924965739 0.0462664366 0.444141865 22 22 14 
-0.0718715787 0.0493915081 0.43351686 26 22 18 
0.00937843323 0.0575164557 0.38664186 14 14 10 
-0.0143715739 0.0593914986 0.397891879 22 18 10 
0.0125034451 0.0393915176 0.376016855 26 22 14 
0.020003438 0.0543915033 0.352891803 62 58 50 
0.0175034404 0.0412664413 0.371641874 34 30 26 
-0.0399965644 0.0750164986 0.471016884 66 66 54 
-0.0768715739 0.069391489 0.47476685 98 94 90 
-0.0943715572 -0.071233511 0.505391836 194 186 174 
-0.0862465501 -0.0687334538 0.479766846 114 118 110 
-0.0874965787 -0.071233511 0.473516822 138 146 134 
-0.0924965739 -0.0537334681 0.498516798 74 66 62 
-0.0962465405 -0.0549834967 0.502266884 122 110 106 
-0.0818715692 -0.0612335205 0.497891784 186 178 174 
-0.0793715715 -0.0681085587 0.476641893 78 78 66 
-0.100621581 -0.0768585205 0.502266884 130 126 114 
-0.0493715405 -0.0393584967 0.500391841 106 98 90 
-0.056871593 -0.0418585539 0.500391841 146 134 122 
-0.0587465763 -0.0487334728 0.49601686 90 86 78 
-0.058121562 -0.0543584824 0.49601686 90 86 74 
-0.0906215906 -0.0499835014 0.51164186 82 70 58 
-0.0856215954 -0.0518585443 0.494141817 18 14 10 
-0.0524965525 -0.0618585348 0.478516817 154 150 138 
-0.072496593 -0.0631085634 0.494766831 190 190 178 
-0.0856215954 -0.0649834871 0.501016855 166 162 150 
-0.0656215549 -0.0656085014 0.474141836 118 126 110 
-0.10187155 -0.0756084919 0.509766817 122 118 106 
-0.0468715429 -0.0374834538 0.510391831 38 30 26 
-0.0431215763 -0.0443584919 0.509766817 74 70 66 
-0.026871562 -0.0524835587 0.499141812 102 106 94 
-0.0393715501 -0.05123353 0.50164187 154 154 142 
-0.0706215501 -0.0381084681 0.511016846 178 170 150 
-0.0512465835 -0.0468585491 0.494766831 10 6 6 
-0.0706215501 -0.0406085253 0.503516793 118 106 90 
-0.0468715429 -0.0574835539 0.49039185 174 166 154 
-0.00499653816 -0.0599834919 0.426016808 126 138 122 
-0.0356215835 -0.0618585348 0.472891808 166 170 158 
-0.0868715644 -0.0624835491 0.502891898 178 170 162 
-0.100621581 -0.0768585205 0.498516798 174 166 154 
0.0400034189 -0.0543584824 0.494141817 58 54 46 
0.0218784213 -0.0449835062 0.506641865 98 98 86 
0.0262534618 -0.05123353 0.497891784 70 66 58 
0.0343784094 -0.0618585348 0.484766841 138 138 130 
0.00812840462 -0.0518585443 0.492266774 174 166 158 
0.0275034308 -0.0699834824 0.44914186 182 182 174 
-0.0199965835 -0.0506085157 0.51164186 138 130 122 
-0.0393715501 -0.0587334633 0.484766841 194 194 182 
-0.0593715906 -0.0662335157 0.481641889 150 170 134 
-0.0693715811 -0.0618585348 0.494766831 226 214 210 
-0.0656215549 -0.0656085014 0.479141831 186 194 178 
-0.0718715787 -0.0612335205 0.494766831 206 202 190 
-0.0912465453 -0.0637334585 0.50601685 166 158 150 
0.0412534475 -0.0362335443 0.509141803 118 110 102 
0.0456284285 -0.05123353 0.494766831 158 154 146 
0.0506284237 -0.0649834871 0.485391855 210 206 198 
0.0443783998 -0.0631085634 0.485391855 174 174 162 
0.0262534618 -0.0418585539 0.510391831 122 118 110 
0.0412534475 -0.0568585396 0.487891793 166 162 154 
0.0406284332 -0.0593584776 0.486641884 178 170 162 
0.0300034285 -0.0524835587 0.50164187 170 166 158 
0.0456284285 -0.0706084967 0.482266784 138 142 134 
0.0206284523 -0.0424835682 0.51164186 106 98 78 
0.0287533998 -0.0537334681 0.496641874 118 114 102 
0.0337533951 -0.0606085062 0.485391855 106 102 94 
0.0243784189 -0.0524835587 0.497266889 158 154 146 
0.0325034261 -0.0637334585 0.475391865 50 50 42 
0.0112534165 -0.0462335348 0.508516788 182 174 162 
0.0118784308 -0.05123353 0.499766827 102 98 90 
0.004378438 -0.0524835587 0.491016865 222 214 206 
-0.0312465429 -0.0599834919 0.482891798 118 122 110 
-0.0549965501 -0.0431084633 0.494766831 46 42 34 
-0.0643715858 -0.0456085205 0.491016865 90 86 74 
-0.0687465668 -0.0506085157 0.492266774 114 110 102 
-0.0718715787 -0.0518585443 0.491641879 90 86 78 
-0.0812465549 -0.0581085682 0.497891784 134 126 118 
-0.0849965811 -0.0518585443 0.49601686 38 30 26 
-0.0812465549 -0.0649834871 0.497266889 142 138 126 
0.0131283998 -0.0481084585 0.503516793 138 130 122 
0.0262534618 -0.0493584871 0.502891898 166 158 154 
0.0306284428 -0.0537334681 0.499141812 102 98 86 
0.005628407 -0.0481084585 0.499766827 126 118 110 
0.0487534404 -0.0549834967 0.49039185 166 154 142 
0.0168784261 -0.0543584824 0.492891788 142 134 126 
0.0168784261 -0.0581085682 0.489141822 146 138 126 
0.0143784285 -0.0593584776 0.485391855 78 74 66 
0.0287533998 -0.0599834919 0.484766841 102 102 90 
-0.0331215858 -0.0543584824 0.491016865 130 130 110 
-0.0206215382 -0.0581085682 0.486641884 146 146 134 
0.0162534118 -0.0606085062 0.483516812 110 106 98 
-0.0212465525 -0.0581085682 0.486641884 170 166 158 
0.0462534428 -0.0718585253 0.476016879 94 98 86 
0.0143784285 -0.0618585348 0.472891808 118 126 114 
-0.041246593 -0.0593584776 0.478516817 154 162 150 
-0.0224965811 -0.0593584776 0.471641898 134 138 126 
-0.0349965692 -0.0618585348 0.474141836 178 182 170 
-0.0212465525 -0.0593584776 0.467891812 106 102 90 
-0.00749659538 -0.0593584776 0.464141846 34 38 26 
0.0393784046 -0.0706084967 0.462266803 118 118 106 
0.0456284285 -0.0718585253 0.460391879 106 106 98 
-0.025621593 -0.0599834919 0.464141846 130 122 110 
0.0225034356 -0.0674835443 0.458516836 106 106 94 
-0.00499653816 -0.0581085682 0.455391884 74 78 70 
0.0381284356 -0.0724835396 0.449766874 138 146 134 
0.0275034308 -0.0699834824 0.448516846 146 150 138 
0.0112534165 -0.0618585348 0.444766879 98 102 94 
0.0412534475 -0.0743584633 0.448516846 90 90 78 
0.0493783951 -0.0762335062 0.448516846 130 134 122 
-0.0574965477 -0.0543584824 0.447891831 118 126 114 
0.0518784523 -0.0787335634 0.448516846 154 158 146 
-0.000621557236 -0.0581085682 0.437891841 138 142 138 
-0.0549965501 -0.0562335253 0.444141865 170 182 166 
0.00812840462 -0.0606085062 0.434141874 146 154 146 
0.020003438 -0.0637334585 0.422891855 50 54 46 
0.0337533951 -0.0724835396 0.426016808 78 82 74 
0.0325034261 -0.071233511 0.424766898 46 50 46 
0.0350034237 -0.0687334538 0.408516884 58 66 50 
0.0450034142 -0.0806084871 0.409141898 138 150 138 
-0.0649965405 -0.0349835157 0.510391831 142 134 118 
-0.0743715763 -0.0418585539 0.510391831 162 146 126 
0.0487534404 -0.0324834585 0.507891774 146 142 130 
0.0175034404 -0.0424835682 0.511016846 74 62 42 
-0.0518715382 -0.0368585587 0.504766822 190 178 170 
-0.0293715596 -0.0468585491 0.511016846 98 94 82 
0.0412534475 -0.0374834538 0.506641865 114 106 94 
0.0293784142 -0.0443584919 0.507266879 86 86 82 
-0.0187465549 -0.0537334681 0.509141803 114 106 94 
-0.00437158346 -0.0481084585 0.506641865 94 90 78 
-0.0918715596 -0.05123353 0.505391836 94 82 70 
0.0100034475 -0.0481084585 0.506641865 154 150 142 
-0.0931215882 -0.0531084538 0.502266884 122 106 94 
-0.0387465954 -0.0506085157 0.50164187 166 162 154 
-0.0224965811 -0.0562335253 0.504141808 118 122 110 
-0.0962465405 -0.0674835443 0.509766817 218 214 210 
-0.0318715572 -0.0499835014 0.500391841 106 110 98 
-0.00624656677 -0.0499835014 0.499141812 114 106 94 
-0.0793715715 -0.0493584871 0.495391846 90 78 74 
0.0162534118 -0.0499835014 0.497891784 182 178 170 
-0.0443715453 -0.0531084538 0.494766831 118 114 102 
-0.00937157869 -0.0537334681 0.495391846 154 146 134 
-0.0506215692 -0.0568585396 0.49601686 166 162 146 
-0.0131215453 -0.055608511 0.493516803 130 130 118 
-0.0587465763 -0.0537334681 0.491016865 134 126 118 
-0.0493715405 -0.0568585396 0.492891788 114 102 90 
-0.0168715715 -0.0549834967 0.49039185 106 110 98 
0.0193784237 -0.055608511 0.491641879 146 138 130 
0.0412534475 -0.055608511 0.491016865 90 86 78 
0.0418784618 -0.0568585396 0.49039185 102 98 86 
-0.025621593 -0.0562335253 0.488516808 98 98 86 
-0.0137465596 -0.0568585396 0.487891793 138 134 126 
0.00875341892 -0.0581085682 0.487266898 82 74 62 
0.035628438 -0.0593584776 0.487891793 178 174 162 
0.005628407 -0.0587334633 0.485391855 174 166 154 
0.00062841177 -0.0587334633 0.483516812 74 70 54 
0.0368784666 -0.0612335205 0.486641884 150 146 134 
-0.0649965405 -0.0612335205 0.482891798 122 122 114 
-0.056871593 -0.0606085062 0.482891798 170 162 150 
-0.0756215453 -0.0649834871 0.484766841 130 134 122 
-0.0812465549 -0.0656085014 0.484141827 134 138 122 
-0.0293715596 -0.0599834919 0.48039186 122 130 118 
0.0293784142 -0.0612335205 0.479141831 82 82 74 
0.0412534475 -0.0656085014 0.483516812 178 174 166 
-0.009996593 -0.0606085062 0.477266788 154 146 134 
0.0218784213 -0.0612335205 0.479141831 106 102 94 
0.0312534571 -0.0612335205 0.477891803 58 62 54 
0.0143784285 -0.0618585348 0.476016879 134 138 126 
0.0156284571 -0.0612335205 0.476641893 90 94 86 
-0.0306215882 -0.0606085062 0.473516822 186 190 178 
-0.0118715763 -0.0618585348 0.475391865 186 182 170 
-0.0493715405 -0.0624835491 0.474141836 150 146 134 
-0.0124965906 -0.0631085634 0.475391865 194 186 174 
-0.0918715596 -0.0693584681 0.478516817 142 142 130 
-0.0637465715 -0.0637334585 0.47476685 66 74 58 
-0.0131215453 -0.0631085634 0.471641898 74 78 66 
-0.0718715787 -0.0662335157 0.473516822 86 86 70 
-0.0131215453 -0.0581085682 0.466016889 34 38 26 
0.0206284523 -0.0637334585 0.469766855 154 162 154 
-0.101246595 -0.0649834871 0.467266798 146 154 146 
-0.0181216002 -0.0581085682 0.462266803 50 46 30 
0.0468784571 -0.0718585253 0.475391865 90 90 82 
-0.00437158346 -0.0587334633 0.461016893 34 38 26 
0.0318784118 -0.0656085014 0.468516827 150 150 138 
0.0493783951 -0.0743584633 0.476641893 86 90 82 
-0.0156215429 -0.0574835539 0.457891822 86 86 74 
0.0268784165 -0.0662335157 0.465391874 162 166 154 
-0.00749659538 -0.0581085682 0.453516841 114 118 110 
0.0381284356 -0.0687334538 0.464141846 138 138 126 
-0.0181216002 -0.0587334633 0.453516841 98 102 94 
-0.0849965811 -0.0574835539 0.449766874 102 110 94 
-0.0687465668 -0.055608511 0.447266817 142 154 142 
0.0481284261 -0.0706084967 0.465391874 126 134 122 
-0.042496562 -0.0568585396 0.448516846 170 178 170 
0.0306284428 -0.0693584681 0.459766865 146 142 130 
-0.00187158585 -0.0587334633 0.447266817 110 114 110 
0.0500034094 -0.0724835396 0.461016893 114 122 110 
-0.0649965405 -0.0562335253 0.439766884 74 86 70 
-0.000621557236 -0.0593584776 0.444141865 86 94 90 
0.0293784142 -0.0693584681 0.454141855 114 118 106 
0.004378438 -0.0599834919 0.442266822 142 150 146 
0.0293784142 -0.0693584681 0.452891827 110 118 110 
-0.0181216002 -0.0487334728 0.427266836 62 74 58 
-0.000621557236 -0.0581085682 0.437891841 154 162 154 
0.0456284285 -0.0737335682 0.456016898 94 90 82 
-0.00312155485 -0.0593584776 0.432891846 118 122 114 
0.0468784571 -0.0756084919 0.451641798 174 174 166 
0.0212534666 -0.0662335157 0.436016798 82 86 78 
0.00312840939 -0.0606085062 0.430391788 122 130 122 
0.035628438 -0.0737335682 0.444141865 142 150 138 
0.0206284523 -0.0662335157 0.429141879 82 86 74 
0.0300034285 -0.071233511 0.430391788 86 90 82 
0.0225034356 -0.0656085014 0.421016812 42 46 38 
0.0306284428 -0.0718585253 0.42789185 66 70 62 
0.0168784261 -0.0662335157 0.419141889 186 194 182 
0.0418784618 -0.0762335062 0.429141879 82 90 82 
0.0306284428 -0.0681085587 0.411016822 66 78 66 
0.0456284285 -0.0787335634 0.42351687 166 174 170 
0.0425034165 -0.0781085491 0.413516879 114 118 98 
0.0425034165 -0.0368585587 0.507891774 106 102 94 
0.0250034332 -0.0406085253 0.51164186 146 138 126 
-0.041246593 -0.0456085205 0.511016846 98 94 86 
0.0118784308 -0.0493584871 0.500391841 126 118 110 
0.0225034356 -0.0524835587 0.496641874 154 150 142 
-0.0918715596 -0.0531084538 0.50164187 118 102 94 
-0.00312155485 -0.0531084538 0.488516808 178 174 158 
0.0493783951 -0.0587334633 0.487891793 142 130 106 
-0.0124965906 -0.0562335253 0.488516808 122 118 110 
-0.0799965858 -0.0574835539 0.497266889 154 146 138 
-0.0543715954 -0.0587334633 0.492266774 146 146 134 
-0.0281215906 -0.0606085062 0.461641788 98 98 86 
-0.0781215429 -0.06685853 0.475391865 106 110 94 
-0.041246593 -0.0587334633 0.45914185 102 110 102 
0.0050034523 -0.0631085634 0.45476687 122 122 110 
-0.0793715715 -0.055608511 0.452266812 110 118 106 
-0.0731215477 -0.0537334681 0.446641803 126 138 130 
-0.0674965382 -0.0562335253 0.442891836 106 110 94 
0.004378438 -0.0593584776 0.426016808 94 98 90 
0.00875341892 -0.0606085062 0.427266836 134 142 134 
0.0318784118 -0.0699834824 0.422266841 26 34 26 
0.0256284475 -0.0687334538 0.413516879 50 54 42 
0.0393784046 -0.0393584967 0.507891774 182 178 166 
0.0112534165 -0.0431084633 0.51164186 98 94 82 
0.0387534499 -0.0493584871 0.501016855 162 158 150 
-0.00749659538 -0.0493584871 0.507266879 182 178 162 
0.0175034404 -0.0518585443 0.49601686 130 130 122 
-0.0487465858 -0.0393584967 0.497266889 78 70 62 
-0.0493715405 -0.039983511 0.496641874 62 54 46 
-0.0556215644 -0.0424835682 0.493516803 58 50 46 
-0.0599965453 -0.0418585539 0.494141817 78 66 58 
-0.0668715835 -0.0456085205 0.49039185 26 18 14 
-0.0687465668 -0.0462335348 0.488516808 66 62 58 
-0.072496593 -0.0499835014 0.489141822 26 22 14 
-0.0937465429 -0.0537334681 0.502266884 82 70 62 
0.0412534475 -0.0687334538 0.465391874 134 138 126 
-0.0693715811 -0.0406085253 0.505391836 90 78 66 
-0.0262465477 -0.05123353 0.509141803 118 122 102 
-0.0131215453 -0.0562335253 0.491016865 94 94 86 
-0.0143715739 -0.055608511 0.488516808 126 130 118 
-0.009996593 -0.0593584776 0.485391855 118 110 98 
-0.0862465501 -0.0499835014 0.500391841 38 26 18 
-0.0824965835 -0.0499835014 0.504141808 138 118 110 
0.0193784237 -0.0631085634 0.469766855 106 118 106 
0.0206284523 -0.0637334585 0.422891855 62 66 54 
-0.0912465453 -0.0687334538 0.488516808 154 166 158 
-0.042496562 -0.0424835682 0.507266879 70 66 62 
-0.0149965882 -0.0637334585 0.47476685 106 106 94 
-0.073746562 -0.0631085634 0.48039186 82 82 74 
-0.073746562 -0.0631085634 0.48039186 90 90 82 
-0.0856215954 -0.0656085014 0.487266898 118 122 118 
-0.0531215668 -0.0599834919 0.463516831 46 54 42 
0.0450034142 -0.0756084919 0.447891831 150 150 138 
0.0300034285 -0.0724835396 0.439766884 94 98 86 
0.005628407 -0.0599834919 0.42789185 70 78 70 
-0.0206215382 -0.0424835682 0.411641836 130 146 130 
-0.0999965668 -0.0737335682 0.487891793 142 146 134 
-0.0799965858 -0.0568585396 0.452266812 118 126 118 
0.0381284356 -0.0737335682 0.409141898 126 134 118 
0.0387534499 -0.0743584633 0.407266855 106 118 102 
-0.0918715596 -0.0706084967 0.49601686 126 134 122 
-0.0587465763 -0.0637334585 0.474141836 70 74 58 
-0.106246591 -0.0806084871 0.50164187 134 138 126 
-0.0162465572 -0.0431084633 0.414766788 94 110 94 
-0.0731215477 -0.0537334681 0.447266817 130 142 138 
0.0443783998 -0.0762335062 0.405391812 54 62 50 
-0.0149965882 -0.0574835539 0.466641784 46 50 38 
-0.0118715763 -0.0568585396 0.463516831 58 62 50 
-0.00249660015 -0.0581085682 0.455391884 30 38 30 
-0.026871562 -0.0412335396 0.409766793 54 58 42 
-0.0831215382 -0.0581085682 0.445391893 126 134 122 
0.0368784666 -0.0662335157 0.403516889 58 70 58 
-0.0487465858 -0.0543584824 0.497891784 126 122 114 
0.0218784213 -0.0674835443 0.451641798 138 142 134 
-0.0974965692 -0.0731085539 0.491641879 118 118 110 
0.0431284308 -0.0756084919 0.44351685 154 158 142 
-0.0706215501 -0.0524835587 0.449766874 82 90 86 
0.0193784237 -0.0612335205 0.426016808 30 34 30 
-0.00437158346 -0.0593584776 0.422266841 58 66 54 
-0.0968715549 -0.0618585348 0.454141855 162 170 154 
0.0362534523 -0.0618585348 0.399766803 62 74 58 
-0.0674965382 -0.0531084538 0.436016798 102 114 98 
-0.0437465906 -0.0368585587 0.500391841 26 22 18 
-0.0599965453 -0.05123353 0.493516803 98 90 86 
-0.00562155247 -0.0481084585 0.421641827 38 46 34 
-0.0318715572 -0.0487334728 0.511016846 146 146 130 
-0.0768715739 0.0400164127 0.53851676 178 174 170 
-0.0631215572 0.0412664413 0.533516765 222 218 218 
-0.0612465739 0.0393915176 0.534766793 214 206 202 
-0.0693715811 0.0206414461 0.53726685 134 122 110 
-0.0856215954 0.0025165081 0.539766788 150 130 122 
-0.089371562 0.0031414032 0.539766788 194 174 158 
-0.0993715525 0.0237665176 0.553516746 174 170 162 
-0.103746593 0.0231415033 0.554766774 138 134 126 
-0.101246595 0.0218914747 0.553516746 138 126 118 
-0.103121579 0.00439143181 0.555391788 254 246 238 
-0.104371548 0.0206414461 0.555391788 182 170 158 
-0.100621581 0.00814151764 0.556641817 182 174 170 
-0.101246595 0.00126647949 0.549766779 242 230 222 
-0.0862465501 0.0025165081 0.541641831 174 154 142 
-0.0756215453 0.0031414032 0.53851676 198 186 170 
-0.0768715739 1.6450882e-05 0.53726685 178 166 154 
-0.103746593 -0.0256085396 0.55414176 130 118 110 
-0.0874965787 -0.0249835253 0.539766788 134 134 126 
-0.0943715572 -0.0287334919 0.543516755 146 142 134 
-0.088121593 0.0631414652 0.529766798 146 150 134 
-0.0418715477 0.0518914461 0.515391827 210 198 190 
-0.0849965811 0.0400164127 0.540391803 186 182 170 
-0.0599965453 0.0306414366 0.53289175 198 186 174 
-0.0374965668 0.02689147 0.522266865 150 138 130 
-0.0637465715 0.0212664604 0.534766793 142 134 126 
-0.0931215882 0.0200164318 0.549766779 154 150 138 
-0.0924965739 0.0200164318 0.549766779 174 166 158 
-0.0456215739 0.0206414461 0.526641846 134 126 114 
-0.0962465405 0.0181415081 0.551641822 130 122 114 
-0.106871545 0.00564146042 0.560391784 174 166 158 
-0.0374965668 0.00626647472 0.52289176 206 198 186 
-0.0518715382 0.00751650333 0.529141784 126 118 110 
-0.0556215644 0.00689148903 0.527891755 78 70 58 
-0.0593715906 0.00501644611 0.527891755 134 122 114 
-0.0768715739 0.0018914938 0.53851676 166 154 142 
-0.0649965405 0.000641465187 0.534141779 182 174 162 
-0.0349965692 -0.000608563423 0.519141793 202 190 182 
-0.0368715525 -0.00123357773 0.519141793 210 198 190 
-0.0887465477 0.0018914938 0.540391803 158 138 126 
-0.0706215501 -0.0143585205 0.534766793 162 154 138 
-0.103121579 -0.024358511 0.554766774 146 130 122 
-0.0731215477 -0.0287334919 0.534141779 158 150 134 
-0.0618715882 -0.0256085396 0.519766808 118 106 94 
-0.10749656 -0.0312335491 0.553516746 186 174 166 
-0.0931215882 -0.0306085348 0.544141769 118 114 106 
-0.0443715453 0.0593914986 0.516016841 178 178 166 
-0.0218715668 0.0356414318 0.512266755 142 126 118 
-0.0643715858 0.0368914604 0.536641836 206 214 202 
-0.0249965787 0.0256414413 0.518516779 182 170 158 
-0.0199965835 0.01126647 0.518516779 158 146 142 
-0.0687465668 0.0275164843 0.53726685 154 142 130 
-0.0999965668 0.0350164175 0.549766779 174 170 170 
-0.0449965596 0.0150164366 0.529141784 138 126 122 
-0.0212465525 0.00626647472 0.519141793 170 158 150 
-0.0181216002 0.0031414032 0.519141793 142 126 122 
-0.0299965739 0.0025165081 0.519141793 190 182 174 
-0.0193715692 -0.00123357773 0.517891765 134 122 114 
-0.0712465644 0.0206414461 0.536016822 146 134 122 
-0.0206215382 0.000641465187 0.519141793 158 142 138 
-0.0337466002 0.00439143181 0.52164185 198 190 178 
-0.101246595 0.0200164318 0.553516746 154 142 134 
-0.0293715596 -0.00123357773 0.517891765 158 150 142 
-0.0649965405 0.00814151764 0.536641836 178 174 170 
-0.0306215882 -0.00498354435 0.516641855 134 122 114 
-0.0937465429 0.00939142704 0.55414176 238 230 222 
-0.0337466002 -0.00435853004 0.517891765 146 138 130 
-0.0487465858 -0.00185859203 0.523516774 130 126 118 
-0.0231215954 -0.0193585157 0.52164185 26 18 14 
-0.0337466002 -0.0193585157 0.521016836 190 174 170 
-0.0362465382 -0.01998353 0.520391822 154 138 138 
-0.0706215501 -0.00748348236 0.53289175 110 102 90 
-0.0474965572 -0.0137335062 0.519141793 166 162 158 
-0.0968715549 0.0031414032 0.543516755 246 226 214 
-0.0249965787 -0.0318585634 0.524766803 110 106 102 
-0.0787465572 -0.00935852528 0.53851676 146 138 126 
-0.0562465787 -0.0168585777 0.522266865 234 230 218 
-0.0368715525 -0.0262335539 0.517891765 138 122 118 
-0.0393715501 -0.0262335539 0.519141793 158 142 138 
-0.0906215906 -0.0268585682 0.541641831 150 146 138 
-0.0949965715 -0.0306085348 0.543516755 190 182 174 
0.0162534118 -0.00248360634 0.537891865 198 190 190 
0.0137534142 -0.00185859203 0.536641836 154 154 150 
0.0125034451 1.6450882e-05 0.535391808 170 174 174 
0.0112534165 -0.00185859203 0.535391808 190 186 186 
0.0218784213 -0.0268585682 0.528516769 178 178 174 
0.00937843323 0.0118914843 0.512891769 126 114 106 
0.00625342131 -0.0106085539 0.536641836 142 138 134 
0.005628407 0.01126647 0.512266755 178 162 154 
0.0193784237 -0.0299835205 0.526641846 114 114 110 
0.00375342369 -0.0156085491 0.536641836 126 122 122 
-0.00499653816 0.0181415081 0.514766812 234 226 210 
-0.009996593 -0.0143585205 0.535391808 114 110 102 
-0.0118715763 -0.0137335062 0.534141779 186 182 178 
-0.0143715739 0.000641465187 0.519766808 66 58 54 
-0.025621593 0.0206414461 0.518516779 174 162 146 
-0.00874656439 -0.0237334967 0.531641841 122 118 114 
-0.00874656439 -0.024358511 0.531641841 166 166 158 
-0.0374965668 0.0337665081 0.519141793 202 190 178 
-0.00937157869 -0.0268585682 0.531016827 170 174 166 
-0.0249965787 0.00939142704 0.516641855 150 138 122 
-0.0193715692 -0.00310850143 0.51726675 106 94 90 
-0.0287465453 0.00501644611 0.519141793 182 170 158 
-0.0149965882 -0.0299835205 0.529766798 158 154 146 
-0.0187465549 -0.0268585682 0.530391812 158 154 146 
-0.0249965787 -0.0124835968 0.523516774 34 30 22 
-0.0337466002 -0.00310850143 0.518516779 134 122 118 
-0.0693715811 0.0368914604 0.536641836 222 218 218 
-0.0674965382 0.0325164795 0.535391808 146 138 122 
-0.0662465692 0.029391408 0.535391808 190 178 170 
-0.026871562 -0.0274835825 0.515391827 30 22 14 
-0.0774965882 0.0412664413 0.537891865 206 202 198 
-0.0449965596 -0.0262335539 0.512891769 94 86 78 
-0.0693715811 0.000641465187 0.535391808 158 150 138 
-0.0531215668 -0.024358511 0.516016841 162 154 142 
-0.0968715549 0.0318914652 0.549766779 194 190 186 
-0.0587465763 -0.0224835873 0.520391822 142 134 118 
-0.0899965763 0.01126647 0.551016808 182 178 174 
-0.0824965835 -0.0193585157 0.54289186 178 170 154 
-0.0899965763 -0.00935852528 0.53851676 214 190 178 
-0.0987465382 1.6450882e-05 0.54289186 178 158 146 
-0.089371562 -0.0168585777 0.546016812 222 206 194 
0.0125034451 -0.00185859203 0.53726685 122 126 122 
0.0256284475 -0.0224835873 0.529141784 146 146 142 
0.0106284618 -0.00685858727 0.536641836 122 118 114 
0.0225034356 -0.0281085968 0.529766798 158 158 154 
0.0193784237 -0.0274835825 0.527891755 146 142 134 
0.0150034428 -0.0237334967 0.526641846 178 170 158 
-0.00187158585 -0.00560855865 0.535391808 194 190 186 
0.0125034451 -0.0306085348 0.525391817 154 150 142 
0.0106284618 -0.0318585634 0.525391817 158 154 138 
-0.011246562 0.022516489 0.518516779 194 182 170 
-0.00437158346 0.013766408 0.51726675 202 194 182 
-0.00937157869 0.00814151764 0.524766803 154 142 134 
-0.0131215453 -0.00873351097 0.536016822 90 90 82 
-0.0187465549 0.00876641273 0.519766808 162 150 142 
-0.0168715715 -0.00560855865 0.527891755 102 98 90 
-0.0437465906 0.0625164509 0.516016841 222 222 214 
-0.0168715715 -0.0112335682 0.53289175 142 138 130 
-0.0437465906 0.0531414747 0.514766812 198 194 186 
-0.0243715644 0.00501644611 0.518516779 198 186 174 
-0.0212465525 -0.00373351574 0.51726675 106 94 90 
-0.0437465906 0.0318914652 0.52289176 166 154 142 
-0.0431215763 0.0156414509 0.52726686 126 118 106 
-0.0512465835 0.0156414509 0.531016827 114 106 98 
-0.0399965644 -0.0149835348 0.518516779 162 154 150 
-0.0612465739 0.0287665129 0.534141779 158 146 130 
-0.0474965572 -0.00935852528 0.519766808 134 130 118 
-0.0806215405 0.0600165129 0.52726686 218 206 190 
-0.0437465906 -0.0168585777 0.51726675 102 90 86 
-0.0649965405 0.0187664032 0.533516765 134 122 110 
-0.0762465596 0.0368914604 0.53851676 126 126 118 
-0.0699965954 0.0218914747 0.537891865 106 94 86 
-0.0431215763 -0.0318585634 0.51726675 110 102 98 
-0.073746562 0.025016427 0.539766788 142 130 118 
-0.073746562 0.0212664604 0.53851676 178 162 142 
-0.0924965739 0.0587664843 0.53289175 222 214 210 
-0.0756215453 0.0100164413 0.542266846 166 158 146 
-0.0718715787 -0.00498354435 0.534766793 130 122 110 
-0.0837465525 0.0018914938 0.53851676 174 154 146 
-0.0906215906 0.00751650333 0.551641822 194 186 178 
-0.0799965858 -0.0156085491 0.541016817 158 146 138 
-0.0756215453 -0.0293585062 0.536641836 122 118 106 
-0.0806215405 -0.0181086063 0.541641831 170 154 142 
-0.103121579 0.0187664032 0.554766774 166 154 146 
-0.00562155247 0.0281414986 0.514141798 198 182 174 
-0.0199965835 0.0300164223 0.516016841 102 90 82 
-0.0131215453 -0.0124835968 0.535391808 166 162 158 
-0.0312465429 0.0331414938 0.516641855 182 170 162 
-0.042496562 0.0568914413 0.515391827 222 218 210 
-0.0312465429 0.0150164366 0.52289176 154 146 138 
-0.0193715692 -0.00810849667 0.520391822 46 38 30 
-0.0356215835 0.0200164318 0.52289176 122 110 102 
-0.042496562 0.0218914747 0.524766803 114 102 94 
-0.0418715477 0.0118914843 0.526641846 198 186 178 
-0.0343715549 -0.0312335491 0.516641855 174 162 158 
-0.0493715405 -0.00185859203 0.523516774 166 158 146 
-0.0406215787 -0.0181086063 0.517891765 102 86 78 
-0.0399965644 -0.0187335014 0.518516779 102 86 78 
-0.058121562 0.0200164318 0.532266855 178 166 158 
-0.0687465668 0.02689147 0.536641836 158 146 134 
-0.056871593 -0.0149835348 0.523516774 230 214 202 
-0.0743715763 0.0331414938 0.537891865 150 142 134 
-0.0718715787 0.0218914747 0.53726685 138 122 106 
-0.0587465763 -0.0237334967 0.518516779 150 142 130 
-0.0587465763 -0.0168585777 0.523516774 226 214 194 
-0.0631215572 -0.00998353958 0.529766798 198 178 162 
-0.0612465739 -0.01998353 0.524766803 146 138 122 
-0.0956215858 0.0037664175 0.543516755 254 242 230 
-0.0918715596 -0.0237334967 0.544766784 78 74 66 
-0.0931215882 -0.0249835253 0.544141769 118 114 106 
-0.0768715739 -0.0212335587 0.540391803 214 202 186 
-0.0299965739 0.013766408 0.522266865 166 150 134 
0.00312840939 -0.0224835873 0.535391808 214 206 198 
0.0137534142 -0.017483592 0.533516765 134 130 122 
0.0175034404 -0.0149835348 0.53289175 198 186 186 
-0.0324965715 0.00626647472 0.52164185 198 186 174 
0.00812840462 -0.0212335587 0.53289175 126 122 114 
0.00187844038 -0.0249835253 0.534141779 126 122 114 
-0.0599965453 -0.0187335014 0.524141788 242 234 218 
0.0156284571 -0.0293585062 0.525391817 114 114 110 
-0.0362465382 -0.01998353 0.518516779 182 166 162 
-0.0674965382 -0.0274835825 0.520391822 174 158 142 
-0.0662465692 -0.0281085968 0.519766808 182 162 142 
0.0318784118 -0.0318585634 0.522266865 178 170 162 
-0.0487465858 -0.0256085396 0.513516784 142 126 118 
-0.0618715882 -0.0299835205 0.514766812 106 98 86 
0.0393784046 -0.0318585634 0.517891765 130 122 114 
0.0406284332 -0.0312335491 0.515391827 102 98 90 
0.0362534523 -0.0318585634 0.514766812 66 58 50 
0.0393784046 -0.0318585634 0.514766812 78 74 62 
-0.0774965882 0.0400164127 0.539766788 202 198 190 
-0.0543715954 0.0387665033 0.531016827 186 178 154 
-0.0818715692 -0.0187335014 0.542266846 178 166 158 
-0.0749965906 -0.0162335634 0.540391803 158 150 138 
0.0331284404 -0.021858573 0.526641846 174 170 158 
-0.0387465954 -0.00310850143 0.520391822 190 178 166 
-0.00874656439 -0.0287334919 0.529141784 126 122 122 
-0.0231215954 -0.0256085396 0.52726686 134 130 122 
-0.0293715596 -0.01998353 0.519766808 190 178 174 
-0.0612465739 -0.0231084824 0.520391822 102 90 78 
-0.0687465668 -0.0299835205 0.52289176 142 126 106 
-0.0668715835 -0.0268585682 0.520391822 126 106 94 
-0.0674965382 -0.0274835825 0.519141793 202 182 166 
-0.0487465858 -0.0268585682 0.512266755 158 146 134 
-0.0987465382 0.0612664223 0.535391808 118 130 102 
-0.0849965811 0.022516489 0.546641827 154 150 142 
-0.0124965906 0.0237665176 0.523516774 142 138 118 
-0.10749656 0.0018914938 0.556641817 230 218 202 
-0.0249965787 0.0162664652 0.524141788 162 150 138 
-0.0931215882 0.00439143181 0.547891855 246 226 214 
-0.0399965644 0.00939142704 0.524766803 178 174 158 
0.020003438 -0.017483592 0.531016827 198 190 186 
-0.025621593 0.0018914938 0.517891765 162 154 146 
-0.00312155485 -0.0212335587 0.53289175 42 38 30 
-0.0343715549 0.0018914938 0.519766808 134 126 114 
0.0325034261 -0.0287334919 0.522266865 86 82 74 
-0.0931215882 -0.0262335539 0.543516755 118 114 106 
-0.0387465954 -0.0212335587 0.522266865 130 118 114 
-0.0699965954 -0.0299835205 0.529141784 154 142 114 
-0.0687465668 -0.0293585062 0.519141793 198 182 166 
-0.0249965787 0.0156414509 0.525391817 142 134 122 
0.0237534046 -0.00998353958 0.529766798 150 142 138 
0.0175034404 -0.0137335062 0.532266855 194 186 182 
0.0237534046 -0.0212335587 0.529766798 146 146 138 
-0.0781215429 -0.021858573 0.539766788 198 190 174 
-0.0306215882 -0.0181086063 0.522266865 134 114 114 
-0.0262465477 0.0156414509 0.523516774 170 158 142 
0.00125342607 -0.0112335682 0.539766788 166 166 162 
-0.0131215453 -0.0118585825 0.536016822 126 122 114 
-0.0162465572 -0.0231084824 0.536016822 122 118 106 
-0.105621576 -0.0187335014 0.559141755 190 174 162 
-0.0331215858 -0.017483592 0.523516774 150 142 142 
-0.00749659538 0.025016427 0.517891765 190 182 178 
-0.0537465811 -0.00248360634 0.525391817 174 162 158 
-0.0162465572 -0.0231084824 0.535391808 126 122 110 
-0.00687158108 -0.0206085443 0.531641841 86 82 74 
0.0175034404 -0.0306085348 0.523516774 86 86 78 
-0.0187465549 0.00939142704 0.519766808 178 170 162 
-0.0362465382 -0.0162335634 0.522266865 238 226 222 
-0.0731215477 0.0487664938 0.53289175 230 226 222 
0.0431284308 -0.0106085539 0.51726675 182 178 166 
-0.0656215549 0.0237665176 0.536016822 146 134 122 
-0.0406215787 -0.0224835873 0.519141793 102 82 70 
-0.0399965644 -0.01998353 0.516641855 66 50 38 
-0.0218715668 -0.0206085443 0.524141788 42 34 26 
-0.0799965858 -0.0124835968 0.539766788 122 102 86 
-0.0699965954 0.0525164604 0.529766798 186 178 174 
-0.0849965811 -0.00873351097 0.53851676 114 94 82 
-0.106246591 0.0150164366 0.556641817 166 154 138 
-0.0118715763 -0.01998353 0.537891865 166 174 150 
-0.0131215453 -0.00748348236 0.533516765 90 82 74 
-0.0218715668 -0.0193585157 0.512266755 62 50 42 
-0.0399965644 -0.017483592 0.522266865 166 158 146 
-0.0237465501 -0.00560855865 0.516016841 114 102 94 
-0.0518715382 -0.01998353 0.519141793 214 210 190 
-0.0981215835 -0.017483592 0.549766779 126 114 106 
-0.0356215835 0.00501644611 0.522266865 190 186 166 
-0.0718715787 -0.00498354435 0.534141779 138 126 114 
-0.0999965668 -0.0118585825 0.546016812 218 194 182 
-0.0518715382 0.0181415081 0.531641841 106 98 86 
-0.0562465787 0.0181415081 0.531016827 90 78 66 
-0.0843715668 0.0131415129 0.545391798 102 94 86 
-0.0699965954 0.0187664032 0.534766793 174 154 134 
-0.088121593 0.0243914127 0.546641827 166 158 146 
-0.104371548 0.0218914747 0.554766774 126 118 106 
-0.056871593 0.0387665033 0.533516765 186 178 166 
-0.0756215453 0.0337665081 0.53851676 170 158 150 
-0.0962465405 0.0393915176 0.546641827 214 210 202 
-0.100621581 0.0443915129 0.543516755 146 138 130 
-0.0987465382 0.0475164652 0.541016817 222 218 214 
-0.0874965787 0.0506414175 0.536641836 182 170 170 
-0.10749656 0.045016408 0.545391798 210 202 198 
-0.0924965739 0.0500164032 0.53851676 186 178 174 
-0.0749965906 0.0543915033 0.52726686 138 130 118 
-0.0981215835 0.0512664318 0.539766788 218 214 210 
-0.10187155 0.0506414175 0.540391803 226 222 218 
-0.0868715644 0.0575164557 0.532266855 182 174 166 
-0.0787465572 0.0600165129 0.526016831 198 182 166 
-0.089371562 0.0568914413 0.53289175 234 230 222 
-0.106871545 0.056266427 0.54289186 206 198 190 
-0.0899965763 0.0612664223 0.529141784 234 230 226 
-0.0956215858 0.060641408 0.531641841 222 214 210 
-0.0924965739 0.0650165081 0.522266865 210 202 190 
-0.0887465477 0.0687664747 0.515391827 142 138 126 
-0.0193715692 -0.0106085539 0.532266855 142 138 130 
-0.0174965858 -0.00748348236 0.529766798 94 90 78 
-0.0393715501 -0.0206085443 0.523516774 202 202 186 
-0.0381215811 -0.021858573 0.521016836 170 158 150 
-0.0768715739 -0.0149835348 0.539141774 146 138 122 
-0.0362465382 -0.0131084919 0.51726675 150 138 130 
-0.0124965906 0.00876641273 0.52164185 178 166 158 
-0.073746562 -0.0131084919 0.534766793 54 46 34 
-0.0549965501 -0.0149835348 0.522266865 234 230 210 
-0.0762465596 -0.0106085539 0.536016822 102 90 78 
-0.0756215453 -0.00310850143 0.536641836 186 174 158 
-0.0931215882 0.00876641273 0.55289185 246 238 226 
-0.0943715572 0.0118914843 0.55289185 206 202 194 
-0.0262465477 0.0175164938 0.520391822 110 94 78 
-0.0431215763 0.0181415081 0.526641846 146 134 126 
-0.0318715572 0.0237665176 0.521016836 150 138 122 
-0.056871593 0.0275164843 0.531016827 194 182 166 
-0.041246593 0.0318914652 0.52164185 174 162 150 
-0.0431215763 0.0337665081 0.52164185 194 182 170 
-0.058121562 0.0456414223 0.527891755 186 174 158 
-0.101246595 0.0412664413 0.546016812 170 158 146 
-0.0599965453 0.0493915081 0.525391817 194 186 166 
-0.088121593 0.0481414795 0.53726685 242 238 238 
-0.0768715739 0.0531414747 0.529141784 186 178 166 
-0.10187155 0.0487664938 0.541641831 234 230 226 
-0.0643715858 0.056266427 0.52164185 198 190 182 
-0.0524965525 0.0575164557 0.514141798 186 174 158 
-0.0781215429 0.05814147 0.52726686 162 146 134 
-0.0712465644 0.0587664843 0.520391822 194 186 170 
-0.0906215906 0.060641408 0.531016827 190 186 174 
-0.0981215835 0.060641408 0.532266855 230 222 210 
-0.0943715572 0.0625164509 0.529141784 238 230 222 
-0.0999965668 0.0625164509 0.527891755 206 202 190 
-0.088121593 0.0668914318 0.517891765 198 194 182 
-0.100621581 0.0662664175 0.52289176 218 218 210 
-0.0743715763 -0.0212335587 0.53726685 158 150 130 
-0.0362465382 -0.0206085443 0.521016836 126 114 110 
-0.0968715549 0.00814151764 0.555391788 222 218 198 
-0.0199965835 0.0212664604 0.524141788 142 122 106 
-0.102496564 0.0125164986 0.555391788 90 78 74 
-0.0743715763 0.0125164986 0.539766788 114 106 94 
-0.0799965858 0.0143914223 0.542266846 90 82 74 
-0.0743715763 0.022516489 0.539141774 166 146 134 
-0.0899965763 0.029391408 0.546641827 158 154 146 
-0.0431215763 0.0306414366 0.52289176 182 170 154 
-0.104996562 0.0343914032 0.55289185 174 170 158 
-0.103121579 0.040641427 0.547891855 122 110 98 
-0.042496562 0.0462664366 0.51726675 202 194 182 
-0.0668715835 0.0500164032 0.530391812 222 214 206 
-0.0462465882 0.056266427 0.514141798 214 202 190 
-0.072496593 0.0543915033 0.52726686 158 154 146 
-0.0574965477 0.0575164557 0.51726675 206 194 182 
-0.0674965382 0.0575164557 0.521016836 178 166 154 
-0.0949965715 0.056266427 0.534141779 238 234 226 
-0.0937465429 0.0593914986 0.532266855 218 214 206 
-0.0674965382 0.0618914366 0.516016841 214 202 186 
-0.0943715572 0.0687664747 0.514766812 154 146 134 
-0.0987465382 0.0681414604 0.512891769 38 34 22 
0.0287533998 -0.00435853004 0.524141788 126 114 110 
0.0050034523 -0.00248360634 0.532266855 194 190 186 
0.0250034332 -0.00123357773 0.518516779 70 62 54 
0.0343784094 0.00564146042 0.513516784 42 34 26 
0.00125342607 -0.00123357773 0.51726675 50 46 42 
0.0181283951 0.0125164986 0.512891769 158 150 142 
-0.10749656 -0.0131084919 0.559766769 214 198 182 
-0.00499653816 0.0150164366 0.514766812 186 174 162 
-0.0731215477 -0.0112335682 0.53289175 142 134 122 
-0.0506215692 0.0375164747 0.524766803 210 198 186 
-0.0499965549 0.038141489 0.524766803 182 170 158 
-0.0356215835 0.045016408 0.512266755 146 134 126 
-0.0593715906 0.0462664366 0.527891755 194 182 170 
-0.0143715739 0.0237665176 0.524141788 174 162 150 
-0.00937157869 0.0350164175 0.512891769 150 134 126 
-0.0243715644 0.0343914032 0.514141798 118 106 98 
-0.0712465644 0.0312664509 0.53726685 162 154 146 
-0.0549965501 0.040641427 0.530391812 154 146 138 
-0.0531215668 0.0456414223 0.526016831 198 186 170 
-0.0749965906 0.0418914557 0.536016822 130 122 114 
-0.0643715858 0.056266427 0.523516774 182 174 166 
0.0406284332 -0.0168585777 0.523516774 206 202 190 
0.0375034213 -0.0168585777 0.523516774 170 166 158 
0.0212534666 -0.00748348236 0.531016827 178 174 166 
0.0162534118 -0.00123357773 0.536641836 194 194 190 
0.0412534475 -0.00873351097 0.517891765 170 162 158 
0.0393784046 -0.00873351097 0.51726675 90 82 74 
0.0193784237 0.00126647949 0.526016831 126 122 106 
-0.0399965644 -0.0149835348 0.517891765 130 126 114 
-0.0962465405 0.0131415129 0.549766779 146 142 134 
-0.00562155247 0.00689148903 0.52289176 162 150 146 
0.0362534523 0.00626647472 0.512266755 54 42 34 
-0.0118715763 0.0243914127 0.519141793 134 122 106 
-0.00937157869 0.025016427 0.51726675 98 86 74 
-0.0812465549 0.040641427 0.53726685 226 222 214 
-0.0224965811 0.029391408 0.512266755 122 110 102 
0.0206284523 -0.0193585157 0.530391812 210 206 198 
0.0225034356 -0.0118585825 0.530391812 142 138 130 
-0.0912465453 0.00876641273 0.551641822 246 238 230 
-0.0349965692 -0.0193585157 0.518516779 58 42 34 
0.035628438 -0.00873351097 0.519766808 150 146 142 
0.00687843561 0.000641465187 0.519766808 46 38 30 
0.0337533951 0.00564146042 0.516016841 138 130 122 
-0.00624656677 0.01126647 0.519766808 202 186 178 
-0.0768715739 0.05814147 0.524141788 162 146 134 
0.0218784213 -0.00373351574 0.524141788 18 14 10 
0.0218784213 -0.00185859203 0.514766812 78 66 62 
-0.0106215477 0.0143914223 0.516641855 170 158 146 
-0.00374656916 0.0175164938 0.514141798 234 226 210 
0.0506284237 -0.017483592 0.514766812 174 170 166 
0.0362534523 -0.00810849667 0.519766808 126 122 118 
0.0343784094 -0.00373351574 0.517891765 134 126 118 
0.0381284356 -0.00123357773 0.514766812 138 130 122 
0.0456284285 -0.0156085491 0.517891765 154 146 118 
0.0262534618 -0.00435853004 0.526641846 130 122 114 
0.0181283951 -0.00435853004 0.512891769 50 42 38 
0.00187844038 -0.00185859203 0.532266855 174 170 166 
0.0193784237 -0.00123357773 0.528516769 66 62 50 
0.0256284475 -0.00310850143 0.524141788 90 82 74 
0.0262534618 -0.00185859203 0.52164185 86 74 70 
0.0275034308 -0.00185859203 0.518516779 90 78 74 
-0.009996593 1.6450882e-05 0.529766798 66 62 58 
0.0262534618 0.00751650333 0.512266755 190 178 174 
0.00375342369 0.00501644611 0.514141798 130 114 106 
-0.0199965835 0.0206414461 0.525391817 142 134 118 
-0.009996593 0.0243914127 0.52164185 154 138 122 
-0.0193715692 0.0193914175 0.517891765 74 58 42 
-0.00937157869 0.0300164223 0.512891769 146 134 130 
-0.0318715572 0.0431414843 0.512266755 174 170 158 
0.004378438 -0.00248360634 0.531016827 170 166 162 
0.0193784237 0.0018914938 0.524141788 18 14 14 
0.0175034404 0.0031414032 0.524766803 30 30 22 
-0.0349965692 -0.0312335491 0.516641855 130 114 106 
0.0225034356 -0.00185859203 0.514766812 78 70 62 
-0.00812155008 0.0256414413 0.521016836 166 158 146 
-0.0362465382 0.0306414366 0.519141793 122 110 102 
-0.0418715477 0.04251647 0.516641855 214 202 190 
0.0050034523 -0.00748348236 0.534766793 138 138 134 
-0.0206215382 -0.00935852528 0.530391812 78 74 66 
0.0325034261 -0.00248360634 0.518516779 106 94 90 
0.020003438 0.00126647949 0.513516784 162 146 138 
-0.0599965453 0.0143914223 0.53289175 122 110 102 
-0.0199965835 0.0212664604 0.526016831 170 158 146 
-0.0543715954 0.0237665176 0.530391812 218 210 202 
-0.056871593 0.0300164223 0.530391812 210 198 186 
-0.0574965477 0.0375164747 0.534766793 182 174 166 
-0.0318715572 0.0393915176 0.513516784 158 146 134 
-0.0749965906 0.0500164032 0.531641841 154 150 142 
-0.0531215668 0.0531414747 0.517891765 174 166 154 
-0.0399965644 0.0600165129 0.514766812 234 230 226 
-0.0799965858 0.0618914366 0.526641846 226 210 190 
-0.0824965835 0.0662664175 0.515391827 210 198 186 
-0.00499653816 -0.017483592 0.536641836 178 178 166 
-0.0943715572 0.056266427 0.534766793 238 234 230 
-0.0918715596 0.0650165081 0.524766803 138 126 110 
-0.0756215453 0.0631414652 0.515391827 218 210 198 
-0.0774965882 -0.0293585062 0.573516846 118 142 82 
-0.00312155485 -0.0168585777 0.537891865 150 162 130 
-0.00124657154 0.00501644611 0.523516774 38 30 26 
-0.0143715739 -0.00935852528 0.534141779 130 122 114 
-0.0231215954 -0.0131084919 0.532266855 94 94 78 
-0.0974965692 0.0418914557 0.543516755 198 190 186 
-0.0143715739 0.022516489 0.518516779 86 66 54 
-0.105621576 0.0618914366 0.531641841 150 146 134 
-0.0906215906 0.0637664795 0.52726686 242 234 226 
0.0218784213 -0.0206085443 0.530391812 202 194 186 
-0.104371548 -0.0374834538 0.54851675 142 130 122 
-0.106246591 -0.0424835682 0.544766784 146 134 130 
-0.10749656 -0.0462335348 0.543516755 134 126 118 
-0.0956215858 -0.0474835634 0.529141784 178 170 154 
-0.0956215858 -0.0487334728 0.526016831 198 182 166 
-0.101246595 -0.0649834871 0.512891769 202 202 198 
-0.102496564 -0.0331084728 0.549766779 158 150 142 
-0.106246591 -0.0349835157 0.551641822 146 134 122 
-0.0906215906 -0.0362335443 0.542266846 186 178 166 
-0.0918715596 -0.0374834538 0.541641831 178 170 162 
-0.0974965692 -0.0443584919 0.542266846 174 166 162 
-0.0968715549 -0.0462335348 0.542266846 158 150 138 
-0.0999965668 -0.0499835014 0.526641846 174 158 138 
-0.102496564 -0.0624835491 0.514766812 150 142 138 
-0.10749656 -0.0731085539 0.514766812 170 170 162 
-0.0437465906 -0.0331084728 0.512891769 78 70 66 
-0.0449965596 -0.0343585014 0.512891769 94 90 86 
-0.0937465429 -0.0374834538 0.544141769 186 178 170 
-0.0856215954 -0.0374834538 0.53289175 166 158 154 
-0.106871545 -0.0418585539 0.544141769 126 114 106 
-0.0793715715 -0.0437334776 0.516016841 114 102 82 
-0.0943715572 -0.0362335443 0.544141769 202 194 182 
-0.103746593 -0.0568585396 0.518516779 174 158 146 
0.0050034523 -0.0349835157 0.525391817 194 190 170 
-0.00812155008 -0.0349835157 0.530391812 182 178 166 
-0.0162465572 -0.0381084681 0.526641846 166 162 154 
-0.0212465525 -0.0324834585 0.524766803 154 154 150 
-0.0224965811 -0.0368585587 0.525391817 182 178 174 
-0.0143715739 -0.0443584919 0.519766808 42 34 30 
-0.0237465501 -0.0349835157 0.526016831 170 170 158 
-0.0187465549 -0.0431084633 0.52289176 222 218 214 
-0.0218715668 -0.0418585539 0.52289176 138 138 130 
-0.0262465477 -0.0368585587 0.524766803 146 146 142 
-0.025621593 -0.039983511 0.523516774 178 174 170 
-0.041246593 -0.0337334871 0.51726675 114 110 106 
-0.0899965763 -0.0362335443 0.541641831 178 174 162 
-0.0943715572 -0.0468585491 0.52726686 194 182 166 
0.0100034475 -0.0343585014 0.523516774 150 146 130 
-0.0168715715 -0.0324834585 0.526016831 78 74 66 
-0.0149965882 -0.0349835157 0.52726686 114 110 102 
-0.0149965882 -0.0374834538 0.52726686 186 186 178 
-0.0149965882 -0.0449835062 0.522266865 114 110 102 
-0.0174965858 -0.0437334776 0.522266865 194 190 182 
-0.0262465477 -0.0331084728 0.523516774 142 138 134 
-0.0331215858 -0.0374834538 0.517891765 118 114 114 
-0.0381215811 -0.0437334776 0.515391827 154 154 134 
-0.0731215477 -0.0324834585 0.532266855 178 174 158 
-0.0931215882 -0.0374834538 0.543516755 170 162 150 
-0.0187465549 -0.0456085205 0.521016836 98 94 86 
-0.0106215477 -0.0449835062 0.519141793 74 70 58 
-0.0237465501 -0.0424835682 0.514141798 30 26 18 
-0.0899965763 -0.0387334824 0.539766788 174 170 150 
-0.0868715644 -0.0324834585 0.53726685 122 114 106 
-0.073746562 -0.0337334871 0.531641841 170 162 142 
-0.0924965739 -0.0424835682 0.534766793 130 122 114 
-0.0843715668 -0.0368585587 0.53289175 162 158 154 
-0.0906215906 -0.0418585539 0.532266855 126 118 110 
-0.0912465453 -0.0424835682 0.531641841 94 86 78 
-0.00562155247 -0.0362335443 0.529766798 174 170 150 
-0.00374656916 -0.0337334871 0.528516769 178 174 134 
-0.0862465501 -0.0424835682 0.528516769 154 142 134 
-0.0706215501 -0.0331084728 0.523516774 130 114 98 
-0.0943715572 -0.0462335348 0.529141784 162 146 130 
-0.0824965835 -0.0418585539 0.526641846 102 90 74 
